-2087.308808 -3123.697408 -116.000000
-2087.736202 -3125.651208 -116.000000
-2088.163595 -3127.605008 -116.000000
-2088.590989 -3129.558808 -116.000000
-2089.018383 -3131.512608 -116.000000
-2089.445777 -3133.466408 -116.000000
-2089.873170 -3135.420208 -116.000000
-2090.300564 -3137.374008 -116.000000
-2090.727958 -3139.327808 -116.000000
-2091.155352 -3141.281608 -116.000000
-2091.582746 -3143.235408 -116.000000
-2092.010139 -3145.189208 -116.000000
-2092.437533 -3147.143008 -116.000000
-2092.864927 -3149.096808 -116.000000
-2093.292321 -3151.050608 -116.000000
-2093.719714 -3153.004408 -116.000000
-2094.147108 -3154.958208 -116.000000
-2094.574502 -3156.912008 -116.000000
-2095.001896 -3158.865808 -116.000000
-2095.429289 -3160.819608 -116.000000
-2095.856683 -3162.773408 -116.000000
-2096.284077 -3164.727208 -116.000000
-2096.711471 -3166.681009 -116.000000
-2097.138864 -3168.634809 -116.000000
-2097.566258 -3170.588609 -116.000000
-2097.993652 -3172.542409 -116.000000
-2098.421046 -3174.496209 -116.000000
-2098.848439 -3176.450009 -116.000000
-2099.275833 -3178.403809 -116.000000
-2099.703227 -3180.357609 -116.000000
-2100.130621 -3182.311409 -116.000000
-2100.558014 -3184.265209 -116.000000
-2100.985408 -3186.219009 -116.000000
-2101.412802 -3188.172809 -116.000000
-2101.840196 -3190.126609 -116.000000
-2102.267589 -3192.080409 -116.000000
-2102.694983 -3194.034209 -116.000000
-2103.122377 -3195.988009 -116.000000
-2103.549771 -3197.941809 -116.000000
-2104.000000 -3200.000000 -116.000000
-2104.132869 -3201.977413 -115.731330
-2104.265737 -3203.954826 -115.462660
-2104.398606 -3205.932239 -115.193989
-2104.531475 -3207.909652 -114.925319
-2104.664343 -3209.887065 -114.656649
-2104.797212 -3211.864478 -114.387979
-2104.930081 -3213.841891 -114.119308
-2105.062949 -3215.819304 -113.850638
-2105.195818 -3217.796717 -113.581968
-2105.328687 -3219.774130 -113.313298
-2105.461555 -3221.751543 -113.044627
-2105.594424 -3223.728956 -112.775957
-2105.727293 -3225.706369 -112.507287
-2105.860161 -3227.683782 -112.238617
-2105.993030 -3229.661195 -111.969946
-2106.125899 -3231.638608 -111.701276
-2106.258767 -3233.616021 -111.432606
-2106.391636 -3235.593434 -111.163936
-2106.524505 -3237.570847 -110.895265
-2106.657373 -3239.548260 -110.626595
-2106.790242 -3241.525673 -110.357925
-2106.923111 -3243.503086 -110.089255
-2107.055979 -3245.480499 -109.820584
-2107.188848 -3247.457912 -109.551914
-2107.321717 -3249.435325 -109.283244
-2107.454585 -3251.412738 -109.014574
-2107.587454 -3253.390151 -108.745903
-2107.720323 -3255.367564 -108.477233
-2107.853191 -3257.344977 -108.208563
-2107.986060 -3259.322390 -107.939893
-2108.118929 -3261.299803 -107.671222
-2108.251797 -3263.277216 -107.402552
-2108.384666 -3265.254629 -107.133882
-2108.517534 -3267.232042 -106.865212
-2108.650403 -3269.209455 -106.596541
-2108.783272 -3271.186868 -106.327871
-2108.916140 -3273.164281 -106.059201
-2109.049009 -3275.141694 -105.790531
-2109.181878 -3277.119107 -105.521860
-2109.314746 -3279.096520 -105.253190
-2109.447615 -3281.073933 -104.984520
-2109.580484 -3283.051346 -104.715850
-2109.713352 -3285.028759 -104.447179
-2109.846221 -3287.006173 -104.178509
-2109.979090 -3288.983586 -103.909839
-2110.111958 -3290.960999 -103.641169
-2110.244827 -3292.938412 -103.372498
-2110.377696 -3294.915825 -103.103828
-2110.510564 -3296.893238 -102.835158
-2110.643433 -3298.870651 -102.566488
-2110.776302 -3300.848064 -102.297817
-2110.909170 -3302.825477 -102.029147
-2111.042039 -3304.802890 -101.760477
-2111.174908 -3306.780303 -101.491807
-2111.307776 -3308.757716 -101.223136
-2111.440645 -3310.735129 -100.954466
-2111.573514 -3312.712542 -100.685796
-2111.706382 -3314.689955 -100.417126
-2111.839251 -3316.667368 -100.148455
-2111.972120 -3318.644781 -99.879785
-2112.104988 -3320.622194 -99.611115
-2112.237857 -3322.599607 -99.342445
-2112.370726 -3324.577020 -99.073774
-2112.503594 -3326.554433 -98.805104
-2112.636463 -3328.531846 -98.536434
-2112.769332 -3330.509259 -98.267764
-2112.902200 -3332.486672 -97.999094
-2113.035069 -3334.464085 -97.730423
-2113.167938 -3336.441498 -97.461753
-2113.300806 -3338.418911 -97.193083
-2113.433675 -3340.396324 -96.924413
-2113.566544 -3342.373737 -96.655742
-2113.699412 -3344.351150 -96.387072
-2113.832281 -3346.328563 -96.118402
-2113.965150 -3348.305976 -95.849732
-2114.098018 -3350.283389 -95.581061
-2114.230887 -3352.260802 -95.312391
-2114.363756 -3354.238215 -95.043721
-2114.496624 -3356.215628 -94.775051
-2114.629493 -3358.193041 -94.506380
-2114.762362 -3360.170454 -94.237710
-2114.895230 -3362.147867 -93.969040
-2115.028099 -3364.125280 -93.700370
-2115.160968 -3366.102693 -93.431699
-2115.293836 -3368.080106 -93.163029
-2115.426705 -3370.057519 -92.894359
-2115.559574 -3372.034932 -92.625689
-2115.692442 -3374.012345 -92.357018
-2115.825311 -3375.989758 -92.088348
-2115.958180 -3377.967171 -91.819678
-2116.091048 -3379.944584 -91.551008
-2116.223917 -3381.921997 -91.282337
-2116.356786 -3383.899410 -91.013667
-2116.489654 -3385.876823 -90.744997
-2116.622523 -3387.854236 -90.476327
-2116.755392 -3389.831649 -90.207656
-2116.888260 -3391.809062 -89.938986
-2117.021129 -3393.786475 -89.670316
-2117.153997 -3395.763888 -89.401646
-2117.286866 -3397.741301 -89.132975
-2117.419735 -3399.718714 -88.864305
-2117.552603 -3401.696127 -88.595635
-2117.685472 -3403.673540 -88.326965
-2117.818341 -3405.650953 -88.058294
-2117.951209 -3407.628366 -87.789624
-2118.084078 -3409.605779 -87.520954
-2118.216947 -3411.583192 -87.252284
-2118.349815 -3413.560605 -86.983613
-2118.482684 -3415.538018 -86.714943
-2118.615553 -3417.515431 -86.446273
-2118.748421 -3419.492844 -86.177603
-2118.881290 -3421.470257 -85.908932
-2119.014159 -3423.447670 -85.640262
-2119.147027 -3425.425083 -85.371592
-2119.279896 -3427.402496 -85.102922
-2119.412765 -3429.379909 -84.834251
-2119.545633 -3431.357322 -84.565581
-2119.678502 -3433.334735 -84.296911
-2119.811371 -3435.312148 -84.028241
-2119.944239 -3437.289561 -83.759570
-2120.077108 -3439.266974 -83.490900
-2120.209977 -3441.244387 -83.222230
-2120.342845 -3443.221800 -82.953560
-2120.475714 -3445.199213 -82.684889
-2120.608583 -3447.176626 -82.416219
-2120.741451 -3449.154039 -82.147549
-2120.874320 -3451.131452 -81.878879
-2121.007189 -3453.108865 -81.610208
-2121.140057 -3455.086278 -81.341538
-2121.272926 -3457.063691 -81.072868
-2121.405795 -3459.041104 -80.804198
-2121.538663 -3461.018518 -80.535528
-2121.671532 -3462.995931 -80.266857
-2121.804401 -3464.973344 -79.998187
-2121.937269 -3466.950757 -79.729517
-2122.070138 -3468.928170 -79.460847
-2122.203007 -3470.905583 -79.192176
-2122.335875 -3472.882996 -78.923506
-2122.468744 -3474.860409 -78.654836
-2122.601613 -3476.837822 -78.386166
-2122.734481 -3478.815235 -78.117495
-2122.867350 -3480.792648 -77.848825
-2123.000219 -3482.770061 -77.580155
-2123.133087 -3484.747474 -77.311485
-2123.265956 -3486.724887 -77.042814
-2123.398825 -3488.702300 -76.774144
-2123.531693 -3490.679713 -76.505474
-2123.664562 -3492.657126 -76.236804
-2123.797431 -3494.634539 -75.968133
-2123.930299 -3496.611952 -75.699463
-2124.063168 -3498.589365 -75.430793
-2124.196037 -3500.566778 -75.162123
-2124.328905 -3502.544191 -74.893452
-2124.461774 -3504.521604 -74.624782
-2124.594643 -3506.499017 -74.356112
-2124.727511 -3508.476430 -74.087442
-2124.860380 -3510.453843 -73.818771
-2124.993249 -3512.431256 -73.550101
-2125.126117 -3514.408669 -73.281431
-2125.258986 -3516.386082 -73.012761
-2125.391855 -3518.363495 -72.744090
-2125.524723 -3520.340908 -72.475420
-2125.657592 -3522.318321 -72.206750
-2125.790460 -3524.295734 -71.938080
-2125.923329 -3526.273147 -71.669409
-2126.056198 -3528.250560 -71.400739
-2126.189066 -3530.227973 -71.132069
-2126.321935 -3532.205386 -70.863399
-2126.454804 -3534.182799 -70.594728
-2126.587672 -3536.160212 -70.326058
-2126.720541 -3538.137625 -70.057388
-2126.853410 -3540.115038 -69.788718
-2126.986278 -3542.092451 -69.520047
-2127.119147 -3544.069864 -69.251377
-2127.252016 -3546.047277 -68.982707
-2127.384884 -3548.024690 -68.714037
-2127.517753 -3550.002103 -68.445366
-2127.650622 -3551.979516 -68.176696
-2127.783490 -3553.956929 -67.908026
-2127.916359 -3555.934342 -67.639356
-2128.049228 -3557.911755 -67.370685
-2128.182096 -3559.889168 -67.102015
-2128.314965 -3561.866581 -66.833345
-2128.447834 -3563.843994 -66.564675
-2128.580702 -3565.821407 -66.296004
-2128.713571 -3567.798820 -66.027334
-2128.846440 -3569.776233 -65.758664
-2128.979308 -3571.753646 -65.489994
-2129.112177 -3573.731059 -65.221323
-2129.245046 -3575.708472 -64.952653
-2129.377914 -3577.685885 -64.683983
-2129.510783 -3579.663298 -64.415313
-2129.643652 -3581.640711 -64.146643
-2129.776520 -3583.618124 -63.877972
-2129.909389 -3585.595537 -63.609302
-2130.042258 -3587.572950 -63.340632
-2130.175126 -3589.550363 -63.071962
-2130.307995 -3591.527776 -62.803291
-2130.440864 -3593.505189 -62.534621
-2130.573732 -3595.482602 -62.265951
-2130.706601 -3597.460015 -61.997281
-2130.839470 -3599.437428 -61.728610
-2130.972338 -3601.414841 -61.459940
-2131.105207 -3603.392254 -61.191270
-2131.238076 -3605.369667 -60.922600
-2131.370944 -3607.347080 -60.653929
-2131.503813 -3609.324493 -60.385259
-2131.636682 -3611.301906 -60.116589
-2131.769550 -3613.279319 -59.847919
-2131.902419 -3615.256732 -59.579248
-2132.035288 -3617.234145 -59.310578
-2132.168156 -3619.211558 -59.041908
-2132.301025 -3621.188971 -58.773238
-2132.433894 -3623.166384 -58.504567
-2132.566762 -3625.143797 -58.235897
-2132.699631 -3627.121210 -57.967227
-2132.832500 -3629.098623 -57.698557
-2132.965368 -3631.076036 -57.429886
-2133.098237 -3633.053449 -57.161216
-2133.231106 -3635.030863 -56.892546
-2133.363974 -3637.008276 -56.623876
-2133.496843 -3638.985689 -56.355205
-2133.629712 -3640.963102 -56.086535
-2133.762580 -3642.940515 -55.817865
-2133.895449 -3644.917928 -55.549195
-2134.028318 -3646.895341 -55.280524
-2134.161186 -3648.872754 -55.011854
-2134.294055 -3650.850167 -54.743184
-2134.426923 -3652.827580 -54.474514
-2134.559792 -3654.804993 -54.205843
-2134.692661 -3656.782406 -53.937173
-2134.825529 -3658.759819 -53.668503
-2134.958398 -3660.737232 -53.399833
-2135.091267 -3662.714645 -53.131162
-2135.224135 -3664.692058 -52.862492
-2135.357004 -3666.669471 -52.593822
-2135.489873 -3668.646884 -52.325152
-2135.622741 -3670.624297 -52.056481
-2135.755610 -3672.601710 -51.787811
-2135.888479 -3674.579123 -51.519141
-2136.021347 -3676.556536 -51.250471
-2136.154216 -3678.533949 -50.981800
-2136.287085 -3680.511362 -50.713130
-2136.419953 -3682.488775 -50.444460
-2136.552822 -3684.466188 -50.175790
-2136.685691 -3686.443601 -49.907119
-2136.818559 -3688.421014 -49.638449
-2136.951428 -3690.398427 -49.369779
-2137.084297 -3692.375840 -49.101109
-2137.217165 -3694.353253 -48.832438
-2137.350034 -3696.330666 -48.563768
-2137.482903 -3698.308079 -48.295098
-2137.615771 -3700.285492 -48.026428
-2137.748640 -3702.262905 -47.757757
-2137.881509 -3704.240318 -47.489087
-2138.014377 -3706.217731 -47.220417
-2138.147246 -3708.195144 -46.951747
-2138.280115 -3710.172557 -46.683077
-2138.412983 -3712.149970 -46.414406
-2138.545852 -3714.127383 -46.145736
-2138.678721 -3716.104796 -45.877066
-2138.811589 -3718.082209 -45.608396
-2138.944458 -3720.059622 -45.339725
-2139.077327 -3722.037035 -45.071055
-2139.210195 -3724.014448 -44.802385
-2139.343064 -3725.991861 -44.533715
-2139.475933 -3727.969274 -44.265044
-2139.608801 -3729.946687 -43.996374
-2139.741670 -3731.924100 -43.727704
-2139.874539 -3733.901513 -43.459034
-2140.007407 -3735.878926 -43.190363
-2140.140276 -3737.856339 -42.921693
-2140.273145 -3739.833752 -42.653023
-2140.406013 -3741.811165 -42.384353
-2140.538882 -3743.788578 -42.115682
-2140.671751 -3745.765991 -41.847012
-2140.804619 -3747.743404 -41.578342
-2140.937488 -3749.720817 -41.309672
-2141.070357 -3751.698230 -41.041001
-2141.203225 -3753.675643 -40.772331
-2141.336094 -3755.653056 -40.503661
-2141.468963 -3757.630469 -40.234991
-2141.601831 -3759.607882 -39.966320
-2141.734700 -3761.585295 -39.697650
-2141.867569 -3763.562708 -39.428980
-2142.000437 -3765.540121 -39.160310
-2142.133306 -3767.517534 -38.891639
-2142.266175 -3769.494947 -38.622969
-2142.399043 -3771.472360 -38.354299
-2142.531912 -3773.449773 -38.085629
-2142.664781 -3775.427186 -37.816958
-2142.797649 -3777.404599 -37.548288
-2142.930518 -3779.382012 -37.279618
-2143.063386 -3781.359425 -37.010948
-2143.196255 -3783.336838 -36.742277
-2143.329124 -3785.314251 -36.473607
-2143.461992 -3787.291664 -36.204937
-2143.594861 -3789.269077 -35.936267
-2143.727730 -3791.246490 -35.667596
-2143.860598 -3793.223903 -35.398926
-2143.993467 -3795.201316 -35.130256
-2144.126336 -3797.178729 -34.861586
-2144.259204 -3799.156142 -34.592915
-2144.392073 -3801.133555 -34.324245
-2144.524942 -3803.110968 -34.055575
-2144.657810 -3805.088381 -33.786905
-2144.790679 -3807.065794 -33.518234
-2144.923548 -3809.043208 -33.249564
-2145.056416 -3811.020621 -32.980894
-2145.189285 -3812.998034 -32.712224
-2145.322154 -3814.975447 -32.443553
-2145.455022 -3816.952860 -32.174883
-2145.587891 -3818.930273 -31.906213
-2145.720760 -3820.907686 -31.637543
-2145.853628 -3822.885099 -31.368872
-2145.986497 -3824.862512 -31.100202
-2146.119366 -3826.839925 -30.831532
-2146.252234 -3828.817338 -30.562862
-2146.385103 -3830.794751 -30.294191
-2146.517972 -3832.772164 -30.025521
-2146.650840 -3834.749577 -29.756851
-2146.783709 -3836.726990 -29.488181
-2146.916578 -3838.704403 -29.219511
-2147.049446 -3840.681816 -28.950840
-2147.182315 -3842.659229 -28.682170
-2147.315184 -3844.636642 -28.413500
-2147.448052 -3846.614055 -28.144830
-2147.580921 -3848.591468 -27.876159
-2147.713790 -3850.568881 -27.607489
-2147.846658 -3852.546294 -27.338819
-2147.979527 -3854.523707 -27.070149
-2148.112396 -3856.501120 -26.801478
-2148.245264 -3858.478533 -26.532808
-2148.378133 -3860.455946 -26.264138
-2148.511002 -3862.433359 -25.995468
-2148.643870 -3864.410772 -25.726797
-2148.776739 -3866.388185 -25.458127
-2148.909608 -3868.365598 -25.189457
-2149.042476 -3870.343011 -24.920787
-2149.175345 -3872.320424 -24.652116
-2149.308214 -3874.297837 -24.383446
-2149.441082 -3876.275250 -24.114776
-2149.573951 -3878.252663 -23.846106
-2149.706820 -3880.230076 -23.577435
-2149.839688 -3882.207489 -23.308765
-2149.972557 -3884.184902 -23.040095
-2150.105426 -3886.162315 -22.771425
-2150.238294 -3888.139728 -22.502754
-2150.371163 -3890.117141 -22.234084
-2150.504032 -3892.094554 -21.965414
-2150.636900 -3894.071967 -21.696744
-2150.769769 -3896.049380 -21.428073
-2150.902638 -3898.026793 -21.159403
-2151.035506 -3900.004206 -20.890733
-2151.168375 -3901.981619 -20.622063
-2151.301244 -3903.959032 -20.353392
-2151.434112 -3905.936445 -20.084722
-2151.566981 -3907.913858 -19.816052
-2151.699849 -3909.891271 -19.547382
-2151.832718 -3911.868684 -19.278711
-2151.965587 -3913.846097 -19.010041
-2152.098455 -3915.823510 -18.741371
-2152.231324 -3917.800923 -18.472701
-2152.364193 -3919.778336 -18.204030
-2152.497061 -3921.755749 -17.935360
-2152.629930 -3923.733162 -17.666690
-2152.762799 -3925.710575 -17.398020
-2152.895667 -3927.687988 -17.129349
-2153.028536 -3929.665401 -16.860679
-2153.161405 -3931.642814 -16.592009
-2153.294273 -3933.620227 -16.323339
-2153.454178 -3936.000000 -16.000000
-2154.308780 -3937.808219 -16.000000
-2155.163382 -3939.616438 -16.000000
-2156.017984 -3941.424656 -16.000000
-2156.872587 -3943.232875 -16.000000
-2157.727189 -3945.041094 -16.000000
-2158.581791 -3946.849313 -16.000000
-2159.436393 -3948.657531 -16.000000
-2160.290995 -3950.465750 -16.000000
-2161.145598 -3952.273969 -16.000000
-2162.000200 -3954.082188 -16.000000
-2162.854802 -3955.890406 -16.000000
-2163.709404 -3957.698625 -16.000000
-2164.564006 -3959.506844 -16.000000
-2165.418608 -3961.315063 -16.000000
-2166.273211 -3963.123281 -16.000000
-2167.127813 -3964.931500 -16.000000
-2167.982415 -3966.739719 -16.000000
-2168.837017 -3968.547938 -16.000000
-2169.691619 -3970.356157 -16.000000
-2170.546222 -3972.164375 -16.000000
-2171.400824 -3973.972594 -16.000000
-2172.255426 -3975.780813 -16.000000
-2173.110028 -3977.589032 -16.000000
-2173.964630 -3979.397250 -16.000000
-2174.819233 -3981.205469 -16.000000
-2175.673835 -3983.013688 -16.000000
-2176.528437 -3984.821907 -16.000000
-2177.383039 -3986.630125 -16.000000
-2178.237641 -3988.438344 -16.000000
-2179.092243 -3990.246563 -16.000000
-2179.946846 -3992.054782 -16.000000
-2180.801448 -3993.863001 -16.000000
-2181.656050 -3995.671219 -16.000000
-2182.510652 -3997.479438 -16.000000
-2183.365254 -3999.287657 -16.000000
-2184.219857 -4001.095876 -16.000000
-2185.074459 -4002.904094 -16.000000
-2185.929061 -4004.712313 -16.000000
-2186.783663 -4006.520532 -16.000000
-2187.638265 -4008.328751 -16.000000
-2188.492867 -4010.136969 -16.000000
-2189.347470 -4011.945188 -16.000000
-2190.202072 -4013.753407 -16.000000
-2191.056674 -4015.561626 -16.000000
-2191.911276 -4017.369844 -16.000000
-2192.765878 -4019.178063 -16.000000
-2193.620481 -4020.986282 -16.000000
-2194.475083 -4022.794501 -16.000000
-2195.329685 -4024.602720 -16.000000
-2196.184287 -4026.410938 -16.000000
-2197.038889 -4028.219157 -16.000000
-2197.893491 -4030.027376 -16.000000
-2198.748094 -4031.835595 -16.000000
-2199.602696 -4033.643813 -16.000000
-2200.457298 -4035.452032 -16.000000
-2201.311900 -4037.260251 -16.000000
-2202.166502 -4039.068470 -16.000000
-2203.021105 -4040.876688 -16.000000
-2203.875707 -4042.684907 -16.000000
-2204.730309 -4044.493126 -16.000000
-2205.584911 -4046.301345 -16.000000
-2206.439513 -4048.109564 -16.000000
-2207.294116 -4049.917782 -16.000000
-2208.148718 -4051.726001 -16.000000
-2209.003320 -4053.534220 -16.000000
-2209.857922 -4055.342439 -16.000000
-2210.712524 -4057.150657 -16.000000
-2211.567126 -4058.958876 -16.000000
-2212.421729 -4060.767095 -16.000000
-2213.276331 -4062.575314 -16.000000
-2214.130933 -4064.383532 -16.000000
-2214.985535 -4066.191751 -16.000000
-2215.840137 -4067.999970 -16.000000
-2216.694740 -4069.808189 -16.000000
-2217.549342 -4071.616407 -16.000000
-2218.403944 -4073.424626 -16.000000
-2219.258546 -4075.232845 -16.000000
-2220.113148 -4077.041064 -16.000000
-2220.967750 -4078.849283 -16.000000
-2221.822353 -4080.657501 -16.000000
-2222.676955 -4082.465720 -16.000000
-2223.531557 -4084.273939 -16.000000
-2224.386159 -4086.082158 -16.000000
-2225.240761 -4087.890376 -16.000000
-2226.095364 -4089.698595 -16.000000
-2226.949966 -4091.506814 -16.000000
-2227.804568 -4093.315033 -16.000000
-2228.659170 -4095.123251 -16.000000
-2229.513772 -4096.931470 -16.000000
-2230.368374 -4098.739689 -16.000000
-2231.222977 -4100.547908 -16.000000
-2232.077579 -4102.356127 -16.000000
-2232.932181 -4104.164345 -16.000000
-2233.786783 -4105.972564 -16.000000
-2234.641385 -4107.780783 -16.000000
-2235.495988 -4109.589002 -16.000000
-2236.350590 -4111.397220 -16.000000
-2237.205192 -4113.205439 -16.000000
-2238.059794 -4115.013658 -16.000000
-2238.914396 -4116.821877 -16.000000
-2239.768998 -4118.630095 -16.000000
-2240.623601 -4120.438314 -16.000000
-2241.478203 -4122.246533 -16.000000
-2242.332805 -4124.054752 -16.000000
-2243.187407 -4125.862970 -16.000000
-2244.042009 -4127.671189 -16.000000
-2244.896612 -4129.479408 -16.000000
-2245.751214 -4131.287627 -16.000000
-2246.605816 -4133.095846 -16.000000
-2247.460418 -4134.904064 -16.000000
-2248.315020 -4136.712283 -16.000000
-2249.169623 -4138.520502 -16.000000
-2250.024225 -4140.328721 -16.000000
-2250.878827 -4142.136939 -16.000000
-2251.733429 -4143.945158 -16.000000
-2252.588031 -4145.753377 -16.000000
-2253.442633 -4147.561596 -16.000000
-2254.297236 -4149.369814 -16.000000
-2255.151838 -4151.178033 -16.000000
-2256.006440 -4152.986252 -16.000000
-2256.861042 -4154.794471 -16.000000
-2257.715644 -4156.602690 -16.000000
-2258.570247 -4158.410908 -16.000000
-2259.424849 -4160.219127 -16.000000
-2260.279451 -4162.027346 -16.000000
-2261.134053 -4163.835565 -16.000000
-2261.988655 -4165.643783 -16.000000
-2262.843257 -4167.452002 -16.000000
-2263.697860 -4169.260221 -16.000000
-2264.552462 -4171.068440 -16.000000
-2265.407064 -4172.876658 -16.000000
-2266.261666 -4174.684877 -16.000000
-2267.116268 -4176.493096 -16.000000
-2267.970871 -4178.301315 -16.000000
-2268.825473 -4180.109533 -16.000000
-2269.680075 -4181.917752 -16.000000
-2270.534677 -4183.725971 -16.000000
-2271.389279 -4185.534190 -16.000000
-2272.243881 -4187.342409 -16.000000
-2273.098484 -4189.150627 -16.000000
-2273.953086 -4190.958846 -16.000000
-2274.807688 -4192.767065 -16.000000
-2275.662290 -4194.575284 -16.000000
-2276.516892 -4196.383502 -16.000000
-2277.371495 -4198.191721 -16.000000
-2278.226097 -4199.999940 -16.000000
-2279.080699 -4201.808159 -16.000000
-2279.935301 -4203.616377 -16.000000
-2280.789903 -4205.424596 -16.000000
-2281.644505 -4207.232815 -16.000000
-2282.499108 -4209.041034 -16.000000
-2283.353710 -4210.849253 -16.000000
-2284.208312 -4212.657471 -16.000000
-2285.062914 -4214.465690 -16.000000
-2285.917516 -4216.273909 -16.000000
-2286.772119 -4218.082128 -16.000000
-2287.626721 -4219.890346 -16.000000
-2288.481323 -4221.698565 -16.000000
-2289.335925 -4223.506784 -16.000000
-2290.190527 -4225.315003 -16.000000
-2291.045130 -4227.123221 -16.000000
-2291.899732 -4228.931440 -16.000000
-2292.754334 -4230.739659 -16.000000
-2293.608936 -4232.547878 -16.000000
-2294.463538 -4234.356096 -16.000000
-2295.318140 -4236.164315 -16.000000
-2296.172743 -4237.972534 -16.000000
-2297.027345 -4239.780753 -16.000000
-2297.881947 -4241.588972 -16.000000
-2298.736549 -4243.397190 -16.000000
-2299.591151 -4245.205409 -16.000000
-2300.445754 -4247.013628 -16.000000
-2301.300356 -4248.821847 -16.000000
-2302.154958 -4250.630065 -16.000000
-2303.009560 -4252.438284 -16.000000
-2303.864162 -4254.246503 -16.000000
-2304.718764 -4256.054722 -16.000000
-2305.573367 -4257.862940 -16.000000
-2306.427969 -4259.671159 -16.000000
-2307.282571 -4261.479378 -16.000000
-2308.137173 -4263.287597 -16.000000
-2308.991775 -4265.095816 -16.000000
-2309.846378 -4266.904034 -16.000000
-2310.700980 -4268.712253 -16.000000
-2311.555582 -4270.520472 -16.000000
-2312.410184 -4272.328691 -16.000000
-2313.264786 -4274.136909 -16.000000
-2314.119388 -4275.945128 -16.000000
-2314.973991 -4277.753347 -16.000000
-2315.828593 -4279.561566 -16.000000
-2316.683195 -4281.369784 -16.000000
-2317.537797 -4283.178003 -16.000000
-2318.392399 -4284.986222 -16.000000
-2319.247002 -4286.794441 -16.000000
-2320.101604 -4288.602659 -16.000000
-2320.956206 -4290.410878 -16.000000
-2321.810808 -4292.219097 -16.000000
-2322.665410 -4294.027316 -16.000000
-2323.520012 -4295.835535 -16.000000
-2324.374615 -4297.643753 -16.000000
-2325.229217 -4299.451972 -16.000000
-2326.083819 -4301.260191 -16.000000
-2326.938421 -4303.068410 -16.000000
-2327.793023 -4304.876628 -16.000000
-2328.647626 -4306.684847 -16.000000
-2329.502228 -4308.493066 -16.000000
-2330.356830 -4310.301285 -16.000000
-2331.211432 -4312.109503 -16.000000
-2332.066034 -4313.917722 -16.000000
-2332.920637 -4315.725941 -16.000000
-2333.775239 -4317.534160 -16.000000
-2334.629841 -4319.342378 -16.000000
-2335.484443 -4321.150597 -16.000000
-2336.339045 -4322.958816 -16.000000
-2337.193647 -4324.767035 -16.000000
-2338.048250 -4326.575254 -16.000000
-2338.902852 -4328.383472 -16.000000
-2339.757454 -4330.191691 -16.000000
-2340.612056 -4331.999910 -16.000000
-2341.466658 -4333.808129 -16.000000
-2342.321261 -4335.616347 -16.000000
-2343.175863 -4337.424566 -16.000000
-2344.030465 -4339.232785 -16.000000
-2344.885067 -4341.041004 -16.000000
-2345.739669 -4342.849222 -16.000000
-2346.594271 -4344.657441 -16.000000
-2347.448874 -4346.465660 -16.000000
-2348.303476 -4348.273879 -16.000000
-2349.158078 -4350.082098 -16.000000
-2350.012680 -4351.890316 -16.000000
-2350.867282 -4353.698535 -16.000000
-2351.721885 -4355.506754 -16.000000
-2352.576487 -4357.314973 -16.000000
-2353.431089 -4359.123191 -16.000000
-2354.285691 -4360.931410 -16.000000
-2355.140293 -4362.739629 -16.000000
-2355.994895 -4364.547848 -16.000000
-2356.849498 -4366.356066 -16.000000
-2357.704100 -4368.164285 -16.000000
-2358.558702 -4369.972504 -16.000000
-2359.413304 -4371.780723 -16.000000
-2360.267906 -4373.588941 -16.000000
-2361.122509 -4375.397160 -16.000000
-2361.977111 -4377.205379 -16.000000
-2362.831713 -4379.013598 -16.000000
-2363.686315 -4380.821817 -16.000000
-2364.540917 -4382.630035 -16.000000
-2365.395519 -4384.438254 -16.000000
-2366.250122 -4386.246473 -16.000000
-2367.104724 -4388.054692 -16.000000
-2367.959326 -4389.862910 -16.000000
-2368.813928 -4391.671129 -16.000000
-2369.668530 -4393.479348 -16.000000
-2370.523133 -4395.287567 -16.000000
-2371.377735 -4397.095785 -16.000000
-2372.232337 -4398.904004 -16.000000
-2373.086939 -4400.712223 -16.000000
-2373.941541 -4402.520442 -16.000000
-2374.796144 -4404.328661 -16.000000
-2375.650746 -4406.136879 -16.000000
-2376.505348 -4407.945098 -16.000000
-2377.359950 -4409.753317 -16.000000
-2378.214552 -4411.561536 -16.000000
-2379.069154 -4413.369754 -16.000000
-2379.923757 -4415.177973 -16.000000
-2380.778359 -4416.986192 -16.000000
-2381.632961 -4418.794411 -16.000000
-2382.487563 -4420.602629 -16.000000
-2383.342165 -4422.410848 -16.000000
-2384.196768 -4424.219067 -16.000000
-2385.051370 -4426.027286 -16.000000
-2385.905972 -4427.835504 -16.000000
-2386.760574 -4429.643723 -16.000000
-2387.615176 -4431.451942 -16.000000
-2388.469778 -4433.260161 -16.000000
-2389.324381 -4435.068380 -16.000000
-2390.178983 -4436.876598 -16.000000
-2391.033585 -4438.684817 -16.000000
-2391.888187 -4440.493036 -16.000000
-2392.742789 -4442.301255 -16.000000
-2393.597392 -4444.109473 -16.000000
-2394.451994 -4445.917692 -16.000000
-2395.306596 -4447.725911 -16.000000
-2396.161198 -4449.534130 -16.000000
-2397.015800 -4451.342348 -16.000000
-2397.870402 -4453.150567 -16.000000
-2398.725005 -4454.958786 -16.000000
-2399.579607 -4456.767005 -16.000000
-2400.434209 -4458.575224 -16.000000
-2401.288811 -4460.383442 -16.000000
-2402.143413 -4462.191661 -16.000000
-2402.998016 -4463.999880 -16.000000
-2403.852618 -4465.808099 -16.000000
-2404.707220 -4467.616317 -16.000000
-2405.561822 -4469.424536 -16.000000
-2406.416424 -4471.232755 -16.000000
-2407.271027 -4473.040974 -16.000000
-2408.125629 -4474.849192 -16.000000
-2408.980231 -4476.657411 -16.000000
-2409.834833 -4478.465630 -16.000000
-2410.689435 -4480.273849 -16.000000
-2411.544037 -4482.082067 -16.000000
-2412.398640 -4483.890286 -16.000000
-2413.253242 -4485.698505 -16.000000
-2414.107844 -4487.506724 -16.000000
-2414.962446 -4489.314943 -16.000000
-2415.817048 -4491.123161 -16.000000
-2416.671651 -4492.931380 -16.000000
-2417.526253 -4494.739599 -16.000000
-2418.380855 -4496.547818 -16.000000
-2419.235457 -4498.356036 -16.000000
-2420.090059 -4500.164255 -16.000000
-2420.944661 -4501.972474 -16.000000
-2421.799264 -4503.780693 -16.000000
-2422.653866 -4505.588911 -16.000000
-2423.508468 -4507.397130 -16.000000
-2424.363070 -4509.205349 -16.000000
-2425.217672 -4511.013568 -16.000000
-2426.072275 -4512.821787 -16.000000
-2426.926877 -4514.630005 -16.000000
-2427.781479 -4516.438224 -16.000000
-2428.636081 -4518.246443 -16.000000
-2429.490683 -4520.054662 -16.000000
-2430.345285 -4521.862880 -16.000000
-2431.199888 -4523.671099 -16.000000
-2432.054490 -4525.479318 -16.000000
-2432.909092 -4527.287537 -16.000000
-2433.763694 -4529.095755 -16.000000
-2434.618296 -4530.903974 -16.000000
-2435.472899 -4532.712193 -16.000000
-2436.327501 -4534.520412 -16.000000
-2437.182103 -4536.328630 -16.000000
-2438.036705 -4538.136849 -16.000000
-2438.891307 -4539.945068 -16.000000
-2439.745909 -4541.753287 -16.000000
-2440.600512 -4543.561506 -16.000000
-2441.455114 -4545.369724 -16.000000
-2442.309716 -4547.177943 -16.000000
-2443.164318 -4548.986162 -16.000000
-2444.018920 -4550.794381 -16.000000
-2444.873523 -4552.602599 -16.000000
-2445.728125 -4554.410818 -16.000000
-2446.582727 -4556.219037 -16.000000
-2447.437329 -4558.027256 -16.000000
-2448.291931 -4559.835474 -16.000000
-2449.146534 -4561.643693 -16.000000
-2450.001136 -4563.451912 -16.000000
-2450.855738 -4565.260131 -16.000000
-2451.710340 -4567.068350 -16.000000
-2452.564942 -4568.876568 -16.000000
-2453.419544 -4570.684787 -16.000000
-2454.274147 -4572.493006 -16.000000
-2455.128749 -4574.301225 -16.000000
-2455.983351 -4576.109443 -16.000000
-2456.837953 -4577.917662 -16.000000
-2457.692555 -4579.725881 -16.000000
-2458.547158 -4581.534100 -16.000000
-2459.401760 -4583.342318 -16.000000
-2460.256362 -4585.150537 -16.000000
-2461.110964 -4586.958756 -16.000000
-2461.965566 -4588.766975 -16.000000
-2462.820168 -4590.575193 -16.000000
-2463.674771 -4592.383412 -16.000000
-2464.529373 -4594.191631 -16.000000
-2465.383975 -4595.999850 -16.000000
-2466.238577 -4597.808069 -16.000000
-2467.093179 -4599.616287 -16.000000
-2467.947782 -4601.424506 -16.000000
-2468.802384 -4603.232725 -16.000000
-2469.656986 -4605.040944 -16.000000
-2470.511588 -4606.849162 -16.000000
-2471.366190 -4608.657381 -16.000000
-2472.220792 -4610.465600 -16.000000
-2473.075395 -4612.273819 -16.000000
-2473.929997 -4614.082037 -16.000000
-2474.784599 -4615.890256 -16.000000
-2475.639201 -4617.698475 -16.000000
-2476.493803 -4619.506694 -16.000000
-2477.348406 -4621.314913 -16.000000
-2478.203008 -4623.123131 -16.000000
-2479.057610 -4624.931350 -16.000000
-2479.912212 -4626.739569 -16.000000
-2480.766814 -4628.547788 -16.000000
-2481.621416 -4630.356006 -16.000000
-2482.476019 -4632.164225 -16.000000
-2483.330621 -4633.972444 -16.000000
-2484.185223 -4635.780663 -16.000000
-2485.039825 -4637.588881 -16.000000
-2485.894427 -4639.397100 -16.000000
-2486.749030 -4641.205319 -16.000000
-2487.603632 -4643.013538 -16.000000
-2488.458234 -4644.821756 -16.000000
-2489.312836 -4646.629975 -16.000000
-2490.167438 -4648.438194 -16.000000
-2491.022041 -4650.246413 -16.000000
-2491.876643 -4652.054632 -16.000000
-2492.731245 -4653.862850 -16.000000
-2493.585847 -4655.671069 -16.000000
-2494.440449 -4657.479288 -16.000000
-2495.295051 -4659.287507 -16.000000
-2496.149654 -4661.095725 -16.000000
-2497.004256 -4662.903944 -16.000000
-2497.858858 -4664.712163 -16.000000
-2498.713460 -4666.520382 -16.000000
-2499.568062 -4668.328600 -16.000000
-2500.422665 -4670.136819 -16.000000
-2501.277267 -4671.945038 -16.000000
-2502.131869 -4673.753257 -16.000000
-2502.986471 -4675.561475 -16.000000
-2503.841073 -4677.369694 -16.000000
-2504.695675 -4679.177913 -16.000000
-2505.550278 -4680.986132 -16.000000
-2506.404880 -4682.794351 -16.000000
-2507.259482 -4684.602569 -16.000000
-2508.114084 -4686.410788 -16.000000
-2508.968686 -4688.219007 -16.000000
-2509.823289 -4690.027226 -16.000000
-2510.677891 -4691.835444 -16.000000
-2511.532493 -4693.643663 -16.000000
-2512.387095 -4695.451882 -16.000000
-2513.241697 -4697.260101 -16.000000
-2514.096299 -4699.068319 -16.000000
-2514.950902 -4700.876538 -16.000000
-2515.805504 -4702.684757 -16.000000
-2516.660106 -4704.492976 -16.000000
-2517.514708 -4706.301195 -16.000000
-2518.369310 -4708.109413 -16.000000
-2519.223913 -4709.917632 -16.000000
-2520.078515 -4711.725851 -16.000000
-2520.933117 -4713.534070 -16.000000
-2521.787719 -4715.342288 -16.000000
-2522.642321 -4717.150507 -16.000000
-2523.496923 -4718.958726 -16.000000
-2524.351526 -4720.766945 -16.000000
-2525.206128 -4722.575163 -16.000000
-2526.060730 -4724.383382 -16.000000
-2526.915332 -4726.191601 -16.000000
-2527.769934 -4727.999820 -16.000000
-2528.624537 -4729.808038 -16.000000
-2529.479139 -4731.616257 -16.000000
-2530.333741 -4733.424476 -16.000000
-2531.188343 -4735.232695 -16.000000
-2532.042945 -4737.040914 -16.000000
-2532.897548 -4738.849132 -16.000000
-2533.752150 -4740.657351 -16.000000
-2534.606752 -4742.465570 -16.000000
-2535.461354 -4744.273789 -16.000000
-2536.315956 -4746.082007 -16.000000
-2537.170558 -4747.890226 -16.000000
-2538.025161 -4749.698445 -16.000000
-2538.879763 -4751.506664 -16.000000
-2539.734365 -4753.314882 -16.000000
-2540.588967 -4755.123101 -16.000000
-2541.443569 -4756.931320 -16.000000
-2542.298172 -4758.739539 -16.000000
-2543.152774 -4760.547758 -16.000000
-2544.007376 -4762.355976 -16.000000
-2544.861978 -4764.164195 -16.000000
-2545.716580 -4765.972414 -16.000000
-2546.571182 -4767.780633 -16.000000
-2547.425785 -4769.588851 -16.000000
-2548.280387 -4771.397070 -16.000000
-2549.134989 -4773.205289 -16.000000
-2549.989591 -4775.013508 -16.000000
-2550.844193 -4776.821726 -16.000000
-2551.698796 -4778.629945 -16.000000
-2552.553398 -4780.438164 -16.000000
-2553.408000 -4782.246383 -16.000000
-2554.262602 -4784.054601 -16.000000
-2555.117204 -4785.862820 -16.000000
-2555.971806 -4787.671039 -16.000000
-2557.656854 -4791.236365 -16.000000
-2559.362428 -4791.242761 -17.044499
-2561.068002 -4791.249158 -18.088997
-2562.773575 -4791.255554 -19.133496
-2564.479149 -4791.261951 -20.177995
-2566.184723 -4791.268348 -21.222493
-2567.890297 -4791.274744 -22.266992
-2569.595870 -4791.281141 -23.311490
-2571.301444 -4791.287537 -24.355989
-2573.007018 -4791.293934 -25.400488
-2574.712591 -4791.300330 -26.444986
-2576.418165 -4791.306727 -27.489485
-2578.123739 -4791.313124 -28.533984
-2579.829313 -4791.319520 -29.578482
-2581.534886 -4791.325917 -30.622981
-2583.240460 -4791.332313 -31.667479
-2584.946034 -4791.338710 -32.711978
-2586.651607 -4791.345107 -33.756477
-2588.357181 -4791.351503 -34.800975
-2590.062755 -4791.357900 -35.845474
-2591.768329 -4791.364296 -36.889973
-2593.473902 -4791.370693 -37.934471
-2595.179476 -4791.377090 -38.978970
-2596.885050 -4791.383486 -40.023469
-2598.590623 -4791.389883 -41.067967
-2600.296197 -4791.396279 -42.112466
-2602.001771 -4791.402676 -43.156964
-2603.707345 -4791.409072 -44.201463
-2605.412918 -4791.415469 -45.245962
-2607.118492 -4791.421866 -46.290460
-2608.824066 -4791.428262 -47.334959
-2610.529639 -4791.434659 -48.379458
-2612.235213 -4791.441055 -49.423956
-2613.940787 -4791.447452 -50.468455
-2615.646361 -4791.453849 -51.512953
-2617.351934 -4791.460245 -52.557452
-2619.057508 -4791.466642 -53.601951
-2620.763082 -4791.473038 -54.646449
-2622.468655 -4791.479435 -55.690948
-2624.174229 -4791.485832 -56.735447
-2625.879803 -4791.492228 -57.779945
-2627.585377 -4791.498625 -58.824444
-2629.290950 -4791.505021 -59.868943
-2630.996524 -4791.511418 -60.913441
-2632.702098 -4791.517815 -61.957940
-2634.407671 -4791.524211 -63.002438
-2636.113245 -4791.530608 -64.046937
-2637.818819 -4791.537004 -65.091436
-2639.524393 -4791.543401 -66.135934
-2641.229966 -4791.549797 -67.180433
-2642.935540 -4791.556194 -68.224932
-2644.641114 -4791.562591 -69.269430
-2646.346687 -4791.568987 -70.313929
-2648.052261 -4791.575384 -71.358427
-2649.757835 -4791.581780 -72.402926
-2651.463409 -4791.588177 -73.447425
-2653.168982 -4791.594574 -74.491923
-2654.874556 -4791.600970 -75.536422
-2656.580130 -4791.607367 -76.580921
-2658.285703 -4791.613763 -77.625419
-2659.991277 -4791.620160 -78.669918
-2661.696851 -4791.626557 -79.714416
-2663.402425 -4791.632953 -80.758915
-2665.107998 -4791.639350 -81.803414
-2666.813572 -4791.645746 -82.847912
-2668.519146 -4791.652143 -83.892411
-2670.224719 -4791.658540 -84.936910
-2671.930293 -4791.664936 -85.981408
-2673.635867 -4791.671333 -87.025907
-2675.341441 -4791.677729 -88.070406
-2677.047014 -4791.684126 -89.114904
-2678.752588 -4791.690522 -90.159403
-2680.458162 -4791.696919 -91.203901
-2682.163735 -4791.703316 -92.248400
-2683.869309 -4791.709712 -93.292899
-2685.574883 -4791.716109 -94.337397
-2687.280457 -4791.722505 -95.381896
-2688.986030 -4791.728902 -96.426395
-2690.691604 -4791.735299 -97.470893
-2692.397178 -4791.741695 -98.515392
-2694.102751 -4791.748092 -99.559890
-2695.808325 -4791.754488 -100.604389
-2697.513899 -4791.760885 -101.648888
-2699.219473 -4791.767282 -102.693386
-2700.925046 -4791.773678 -103.737885
-2702.630620 -4791.780075 -104.782384
-2704.336194 -4791.786471 -105.826882
-2706.041767 -4791.792868 -106.871381
-2707.747341 -4791.799264 -107.915880
-2709.452915 -4791.805661 -108.960378
-2711.158488 -4791.812058 -110.004877
-2712.864062 -4791.818454 -111.049375
-2714.569636 -4791.824851 -112.093874
-2716.275210 -4791.831247 -113.138373
-2717.980783 -4791.837644 -114.182871
-2719.686357 -4791.844041 -115.227370
-2721.391931 -4791.850437 -116.271869
-2723.097504 -4791.856834 -117.316367
-2724.803078 -4791.863230 -118.360866
-2726.508652 -4791.869627 -119.405364
-2728.214226 -4791.876024 -120.449863
-2729.919799 -4791.882420 -121.494362
-2731.625373 -4791.888817 -122.538860
-2733.330947 -4791.895213 -123.583359
-2735.036520 -4791.901610 -124.627858
-2736.742094 -4791.908007 -125.672356
-2738.447668 -4791.914403 -126.716855
-2740.153242 -4791.920800 -127.761354
-2741.858815 -4791.927196 -128.805852
-2743.564389 -4791.933593 -129.850351
-2745.269963 -4791.939989 -130.894849
-2746.975536 -4791.946386 -131.939348
-2748.681110 -4791.952783 -132.983847
-2750.386684 -4791.959179 -134.028345
-2752.092258 -4791.965576 -135.072844
-2753.797831 -4791.971972 -136.117343
-2755.503405 -4791.978369 -137.161841
-2757.208979 -4791.984766 -138.206340
-2758.914552 -4791.991162 -139.250838
-2760.620126 -4791.997559 -140.295337
-2762.325700 -4792.003955 -141.339836
-2764.031274 -4792.010352 -142.384334
-2765.736847 -4792.016749 -143.428833
-2767.442421 -4792.023145 -144.473332
-2769.147995 -4792.029542 -145.517830
-2770.853568 -4792.035938 -146.562329
-2772.559142 -4792.042335 -147.606828
-2774.264716 -4792.048731 -148.651326
-2775.970290 -4792.055128 -149.695825
-2777.675863 -4792.061525 -150.740323
-2779.381437 -4792.067921 -151.784822
-2781.087011 -4792.074318 -152.829321
-2782.792584 -4792.080714 -153.873819
-2784.498158 -4792.087111 -154.918318
-2786.203732 -4792.093508 -155.962817
-2787.909306 -4792.099904 -157.007315
-2789.614879 -4792.106301 -158.051814
-2791.320453 -4792.112697 -159.096312
-2793.026027 -4792.119094 -160.140811
-2794.731600 -4792.125491 -161.185310
-2796.437174 -4792.131887 -162.229808
-2798.142748 -4792.138284 -163.274307
-2799.848322 -4792.144680 -164.318806
-2801.553895 -4792.151077 -165.363304
-2803.259469 -4792.157474 -166.407803
-2804.965043 -4792.163870 -167.452301
-2806.670616 -4792.170267 -168.496800
-2808.376190 -4792.176663 -169.541299
-2810.081764 -4792.183060 -170.585797
-2811.787338 -4792.189456 -171.630296
-2813.492911 -4792.195853 -172.674795
-2815.198485 -4792.202250 -173.719293
-2816.904059 -4792.208646 -174.763792
-2818.609632 -4792.215043 -175.808291
-2820.315206 -4792.221439 -176.852789
-2822.020780 -4792.227836 -177.897288
-2823.726354 -4792.234233 -178.941786
-2825.431927 -4792.240629 -179.986285
-2827.137501 -4792.247026 -181.030784
-2828.843075 -4792.253422 -182.075282
-2830.548648 -4792.259819 -183.119781
-2832.254222 -4792.266216 -184.164280
-2833.959796 -4792.272612 -185.208778
-2835.665370 -4792.279009 -186.253277
-2837.370943 -4792.285405 -187.297775
-2839.076517 -4792.291802 -188.342274
-2840.782091 -4792.298198 -189.386773
-2842.487664 -4792.304595 -190.431271
-2844.193238 -4792.310992 -191.475770
-2845.898812 -4792.317388 -192.520269
-2847.604386 -4792.323785 -193.564767
-2849.309959 -4792.330181 -194.609266
-2851.015533 -4792.336578 -195.653765
-2852.721107 -4792.342975 -196.698263
-2854.426680 -4792.349371 -197.742762
-2856.132254 -4792.355768 -198.787260
-2857.837828 -4792.362164 -199.831759
-2859.543402 -4792.368561 -200.876258
-2861.248975 -4792.374958 -201.920756
-2862.954549 -4792.381354 -202.965255
-2864.660123 -4792.387751 -204.009754
-2866.365696 -4792.394147 -205.054252
-2868.071270 -4792.400544 -206.098751
-2869.776844 -4792.406941 -207.143249
-2871.482418 -4792.413337 -208.187748
-2873.187991 -4792.419734 -209.232247
-2874.893565 -4792.426130 -210.276745
-2876.599139 -4792.432527 -211.321244
-2878.304712 -4792.438923 -212.365743
-2880.010286 -4792.445320 -213.410241
-2881.715860 -4792.451717 -214.454740
-2883.421434 -4792.458113 -215.499239
-2885.127007 -4792.464510 -216.543737
-2886.832581 -4792.470906 -217.588236
-2888.538155 -4792.477303 -218.632734
-2890.243728 -4792.483700 -219.677233
-2891.949302 -4792.490096 -220.721732
-2893.654876 -4792.496493 -221.766230
-2895.360450 -4792.502889 -222.810729
-2897.066023 -4792.509286 -223.855228
-2898.771597 -4792.515683 -224.899726
-2900.477171 -4792.522079 -225.944225
-2902.182744 -4792.528476 -226.988723
-2903.888318 -4792.534872 -228.033222
-2905.593892 -4792.541269 -229.077721
-2907.299466 -4792.547666 -230.122219
-2909.005039 -4792.554062 -231.166718
-2910.710613 -4792.560459 -232.211217
-2912.416187 -4792.566855 -233.255715
-2914.121760 -4792.573252 -234.300214
-2915.827334 -4792.579648 -235.344713
-2917.532908 -4792.586045 -236.389211
-2919.238482 -4792.592442 -237.433710
-2920.944055 -4792.598838 -238.478208
-2922.649629 -4792.605235 -239.522707
-2924.355203 -4792.611631 -240.567206
-2926.060776 -4792.618028 -241.611704
-2927.766350 -4792.624425 -242.656203
-2929.471924 -4792.630821 -243.700702
-2931.177498 -4792.637218 -244.745200
-2932.883071 -4792.643614 -245.789699
-2934.588645 -4792.650011 -246.834197
-2936.294219 -4792.656408 -247.878696
-2937.999792 -4792.662804 -248.923195
-2939.705366 -4792.669201 -249.967693
-2941.410940 -4792.675597 -251.012192
-2943.116514 -4792.681994 -252.056691
-2944.822087 -4792.688390 -253.101189
-2946.527661 -4792.694787 -254.145688
-2948.233235 -4792.701184 -255.190186
-2949.938808 -4792.707580 -256.234685
-2951.644382 -4792.713977 -257.279184
-2953.349956 -4792.720373 -258.323682
-2955.055530 -4792.726770 -259.368181
-2956.761103 -4792.733167 -260.412680
-2958.466677 -4792.739563 -261.457178
-2960.172251 -4792.745960 -262.501677
-2961.877824 -4792.752356 -263.546176
-2963.583398 -4792.758753 -264.590674
-2965.288972 -4792.765150 -265.635173
-2966.994546 -4792.771546 -266.679671
-2968.700119 -4792.777943 -267.724170
-2970.405693 -4792.784339 -268.768669
-2972.111267 -4792.790736 -269.813167
-2973.816840 -4792.797133 -270.857666
-2975.522414 -4792.803529 -271.902165
-2977.227988 -4792.809926 -272.946663
-2978.933562 -4792.816322 -273.991162
-2980.639135 -4792.822719 -275.035660
-2982.344709 -4792.829115 -276.080159
-2984.050283 -4792.835512 -277.124658
-2985.755856 -4792.841909 -278.169156
-2987.461430 -4792.848305 -279.213655
-2989.167004 -4792.854702 -280.258154
-2990.872578 -4792.861098 -281.302652
-2992.578151 -4792.867495 -282.347151
-2994.283725 -4792.873892 -283.391650
-2995.989299 -4792.880288 -284.436148
-2997.694872 -4792.886685 -285.480647
-2999.400446 -4792.893081 -286.525145
-3001.106020 -4792.899478 -287.569644
-3002.811594 -4792.905875 -288.614143
-3004.517167 -4792.912271 -289.658641
-3006.222741 -4792.918668 -290.703140
-3007.928315 -4792.925064 -291.747639
-3009.633888 -4792.931461 -292.792137
-3011.339462 -4792.937857 -293.836636
-3013.045036 -4792.944254 -294.881134
-3014.750610 -4792.950651 -295.925633
-3016.456183 -4792.957047 -296.970132
-3018.161757 -4792.963444 -298.014630
-3019.867331 -4792.969840 -299.059129
-3021.572904 -4792.976237 -300.103628
-3023.278478 -4792.982634 -301.148126
-3024.984052 -4792.989030 -302.192625
-3026.689626 -4792.995427 -303.237124
-3028.395199 -4793.001823 -304.281622
-3030.100773 -4793.008220 -305.326121
-3031.806347 -4793.014617 -306.370619
-3033.511920 -4793.021013 -307.415118
-3035.217494 -4793.027410 -308.459617
-3036.923068 -4793.033806 -309.504115
-3038.628642 -4793.040203 -310.548614
-3040.334215 -4793.046600 -311.593113
-3042.039789 -4793.052996 -312.637611
-3043.745363 -4793.059393 -313.682110
-3045.450936 -4793.065789 -314.726608
-3047.156510 -4793.072186 -315.771107
-3048.862084 -4793.078582 -316.815606
-3050.567658 -4793.084979 -317.860104
-3052.273231 -4793.091376 -318.904603
-3053.978805 -4793.097772 -319.949102
-3055.684379 -4793.104169 -320.993600
-3057.389952 -4793.110565 -322.038099
-3059.095526 -4793.116962 -323.082598
-3060.801100 -4793.123359 -324.127096
-3062.506674 -4793.129755 -325.171595
-3064.212247 -4793.136152 -326.216093
-3065.917821 -4793.142548 -327.260592
-3067.623395 -4793.148945 -328.305091
-3069.328968 -4793.155342 -329.349589
-3071.034542 -4793.161738 -330.394088
-3073.656854 -4793.171573 -332.000000
-3072.374089 -4794.706015 -332.000000
-3071.091323 -4796.240457 -332.000000
-3069.808558 -4797.774899 -332.000000
-3068.525792 -4799.309341 -332.000000
-3067.243027 -4800.843783 -332.000000
-3065.960261 -4802.378226 -332.000000
-3064.677496 -4803.912668 -332.000000
-3063.394730 -4805.447110 -332.000000
-3062.111965 -4806.981552 -332.000000
-3060.829199 -4808.515994 -332.000000
-3059.546434 -4810.050436 -332.000000
-3058.263668 -4811.584878 -332.000000
-3056.980903 -4813.119320 -332.000000
-3055.698137 -4814.653763 -332.000000
-3054.415371 -4816.188205 -332.000000
-3053.132606 -4817.722647 -332.000000
-3051.849840 -4819.257089 -332.000000
-3050.567075 -4820.791531 -332.000000
-3049.284309 -4822.325973 -332.000000
-3048.001544 -4823.860415 -332.000000
-3046.718778 -4825.394857 -332.000000
-3045.436013 -4826.929300 -332.000000
-3044.153247 -4828.463742 -332.000000
-3042.870482 -4829.998184 -332.000000
-3041.587716 -4831.532626 -332.000000
-3040.304951 -4833.067068 -332.000000
-3039.022185 -4834.601510 -332.000000
-3037.739420 -4836.135952 -332.000000
-3036.456654 -4837.670394 -332.000000
-3035.173889 -4839.204837 -332.000000
-3033.891123 -4840.739279 -332.000000
-3032.608358 -4842.273721 -332.000000
-3031.325592 -4843.808163 -332.000000
-3030.042827 -4845.342605 -332.000000
-3028.760061 -4846.877047 -332.000000
-3027.477296 -4848.411489 -332.000000
-3026.194530 -4849.945931 -332.000000
-3024.911765 -4851.480374 -332.000000
-3023.628999 -4853.014816 -332.000000
-3022.346234 -4854.549258 -332.000000
-3021.063468 -4856.083700 -332.000000
-3019.780702 -4857.618142 -332.000000
-3018.497937 -4859.152584 -332.000000
-3017.215171 -4860.687026 -332.000000
-3015.932406 -4862.221468 -332.000000
-3014.649640 -4863.755910 -332.000000
-3013.366875 -4865.290353 -332.000000
-3012.084109 -4866.824795 -332.000000
-3010.801344 -4868.359237 -332.000000
-3009.518578 -4869.893679 -332.000000
-3008.235813 -4871.428121 -332.000000
-3006.953047 -4872.962563 -332.000000
-3005.670282 -4874.497005 -332.000000
-3004.387516 -4876.031447 -332.000000
-3003.104751 -4877.565890 -332.000000
-3001.821985 -4879.100332 -332.000000
-3000.539220 -4880.634774 -332.000000
-2999.256454 -4882.169216 -332.000000
-2997.973689 -4883.703658 -332.000000
-2996.690923 -4885.238100 -332.000000
-2995.408158 -4886.772542 -332.000000
-2994.125392 -4888.306984 -332.000000
-2992.842627 -4889.841427 -332.000000
-2991.559861 -4891.375869 -332.000000
-2990.277096 -4892.910311 -332.000000
-2988.994330 -4894.444753 -332.000000
-2987.711565 -4895.979195 -332.000000
-2986.428799 -4897.513637 -332.000000
-2985.146033 -4899.048079 -332.000000
-2983.863268 -4900.582521 -332.000000
-2982.580502 -4902.116964 -332.000000
-2981.297737 -4903.651406 -332.000000
-2980.014971 -4905.185848 -332.000000
-2978.732206 -4906.720290 -332.000000
-2977.449440 -4908.254732 -332.000000
-2976.166675 -4909.789174 -332.000000
-2974.883909 -4911.323616 -332.000000
-2973.601144 -4912.858058 -332.000000
-2972.318378 -4914.392501 -332.000000
-2971.035613 -4915.926943 -332.000000
-2969.752847 -4917.461385 -332.000000
-2968.470082 -4918.995827 -332.000000
-2967.187316 -4920.530269 -332.000000
-2965.904551 -4922.064711 -332.000000
-2964.621785 -4923.599153 -332.000000
-2963.339020 -4925.133595 -332.000000
-2962.056254 -4926.668037 -332.000000
-2960.773489 -4928.202480 -332.000000
-2959.490723 -4929.736922 -332.000000
-2958.207958 -4931.271364 -332.000000
-2956.925192 -4932.805806 -332.000000
-2955.642427 -4934.340248 -332.000000
-2954.359661 -4935.874690 -332.000000
-2953.076896 -4937.409132 -332.000000
-2951.794130 -4938.943574 -332.000000
-2950.511365 -4940.478017 -332.000000
-2949.228599 -4942.012459 -332.000000
-2947.945833 -4943.546901 -332.000000
-2946.663068 -4945.081343 -332.000000
