-1183.997306 -3292.493493 263.751226
-1185.736561 -3292.958356 262.880082
-1187.475817 -3293.423220 262.008939
-1189.215073 -3293.888084 261.137795
-1190.954328 -3294.352948 260.266651
-1192.693584 -3294.817811 259.395508
-1194.432840 -3295.282675 258.524364
-1196.172096 -3295.747539 257.653220
-1197.911351 -3296.212403 256.782076
-1199.650607 -3296.677266 255.910933
-1201.389863 -3297.142130 255.039789
-1203.129118 -3297.606994 254.168645
-1204.868374 -3298.071858 253.297502
-1206.607630 -3298.536721 252.426358
-1208.346885 -3299.001585 251.555214
-1210.086141 -3299.466449 250.684071
-1211.825397 -3299.931312 249.812927
-1213.564652 -3300.396176 248.941783
-1215.303908 -3300.861040 248.070640
-1217.043164 -3301.325904 247.199496
-1218.782420 -3301.790767 246.328352
-1220.521675 -3302.255631 245.457208
-1222.260931 -3302.720495 244.586065
-1224.000187 -3303.185359 243.714921
-1225.739442 -3303.650222 242.843777
-1227.478698 -3304.115086 241.972634
-1229.217954 -3304.579950 241.101490
-1230.957209 -3305.044814 240.230346
-1232.696465 -3305.509677 239.359203
-1234.435721 -3305.974541 238.488059
-1236.174977 -3306.439405 237.616915
-1237.914232 -3306.904269 236.745772
-1239.653488 -3307.369132 235.874628
-1241.392744 -3307.833996 235.003484
-1243.131999 -3308.298860 234.132340
-1244.871255 -3308.763724 233.261197
-1248.000000 -3309.599966 231.694097
-1248.430118 -3311.470980 231.133468
-1248.860236 -3313.341994 230.572839
-1249.290354 -3315.213008 230.012209
-1249.720472 -3317.084022 229.451580
-1250.150591 -3318.955036 228.890950
-1250.580709 -3320.826050 228.330321
-1251.010827 -3322.697064 227.769692
-1251.440945 -3324.568078 227.209062
-1251.871063 -3326.439092 226.648433
-1252.301181 -3328.310106 226.087803
-1252.731299 -3330.181120 225.527174
-1253.161417 -3332.052133 224.966545
-1253.591536 -3333.923147 224.405915
-1254.021654 -3335.794161 223.845286
-1254.451772 -3337.665175 223.284657
-1254.881890 -3339.536189 222.724027
-1255.312008 -3341.407203 222.163398
-1255.742126 -3343.278217 221.602768
-1256.172244 -3345.149231 221.042139
-1256.602362 -3347.020245 220.481510
-1257.032481 -3348.891259 219.920880
-1257.462599 -3350.762273 219.360251
-1257.892717 -3352.633287 218.799621
-1258.322835 -3354.504301 218.238992
-1258.752953 -3356.375314 217.678363
-1259.183071 -3358.246328 217.117733
-1259.613189 -3360.117342 216.557104
-1260.043307 -3361.988356 215.996474
-1260.473425 -3363.859370 215.435845
-1260.903544 -3365.730384 214.875216
-1261.333662 -3367.601398 214.314586
-1261.763780 -3369.472412 213.753957
-1262.193898 -3371.343426 213.193328
-1262.624016 -3373.214440 212.632698
-1263.054134 -3375.085454 212.072069
-1263.484252 -3376.956468 211.511439
-1263.914370 -3378.827481 210.950810
-1264.344489 -3380.698495 210.390181
-1264.774607 -3382.569509 209.829551
-1265.204725 -3384.440523 209.268922
-1265.634843 -3386.311537 208.708292
-1266.064961 -3388.182551 208.147663
-1266.495079 -3390.053565 207.587034
-1266.925197 -3391.924579 207.026404
-1267.355315 -3393.795593 206.465775
-1267.785433 -3395.666607 205.905145
-1268.215552 -3397.537621 205.344516
-1268.645670 -3399.408635 204.783887
-1269.075788 -3401.279649 204.223257
-1269.505906 -3403.150662 203.662628
-1269.936024 -3405.021676 203.101998
-1270.366142 -3406.892690 202.541369
-1270.796260 -3408.763704 201.980740
-1271.226378 -3410.634718 201.420110
-1271.656497 -3412.505732 200.859481
-1272.086615 -3414.376746 200.298852
-1272.516733 -3416.247760 199.738222
-1272.946851 -3418.118774 199.177593
-1273.376969 -3419.989788 198.616963
-1273.807087 -3421.860802 198.056334
-1274.237205 -3423.731816 197.495705
-1274.667323 -3425.602829 196.935075
-1275.097442 -3427.473843 196.374446
-1275.527560 -3429.344857 195.813816
-1275.957678 -3431.215871 195.253187
-1276.387796 -3433.086885 194.692558
-1276.817914 -3434.957899 194.131928
-1277.248032 -3436.828913 193.571299
-1277.678150 -3438.699927 193.010669
-1278.108268 -3440.570941 192.450040
-1278.538386 -3442.441955 191.889411
-1278.968505 -3444.312969 191.328781
-1279.398623 -3446.183983 190.768152
-1279.828741 -3448.054997 190.207523
-1280.258859 -3449.926010 189.646893
-1280.688977 -3451.797024 189.086264
-1281.119095 -3453.668038 188.525634
-1281.549213 -3455.539052 187.965005
-1281.979331 -3457.410066 187.404376
-1282.409450 -3459.281080 186.843746
-1282.839568 -3461.152094 186.283117
-1283.269686 -3463.023108 185.722487
-1283.699804 -3464.894122 185.161858
-1284.129922 -3466.765136 184.601229
-1284.560040 -3468.636150 184.040599
-1284.990158 -3470.507164 183.479970
-1285.420276 -3472.378178 182.919340
-1285.850395 -3474.249191 182.358711
-1286.280513 -3476.120205 181.798082
-1286.710631 -3477.991219 181.237452
-1287.140749 -3479.862233 180.676823
-1287.570867 -3481.733247 180.116193
-1288.000985 -3483.604261 179.555564
-1288.431103 -3485.475275 178.994935
-1288.861221 -3487.346289 178.434305
-1289.291339 -3489.217303 177.873676
-1289.721458 -3491.088317 177.313047
-1290.151576 -3492.959331 176.752417
-1290.581694 -3494.830345 176.191788
-1291.011812 -3496.701358 175.631158
-1291.441930 -3498.572372 175.070529
-1291.872048 -3500.443386 174.509900
-1292.302166 -3502.314400 173.949270
-1292.732284 -3504.185414 173.388641
-1293.162403 -3506.056428 172.828011
-1293.592521 -3507.927442 172.267382
-1294.022639 -3509.798456 171.706753
-1294.452757 -3511.669470 171.146123
-1294.882875 -3513.540484 170.585494
-1295.312993 -3515.411498 170.024864
-1295.743111 -3517.282512 169.464235
-1296.173229 -3519.153526 168.903606
-1296.603348 -3521.024539 168.342976
-1297.033466 -3522.895553 167.782347
-1297.463584 -3524.766567 167.221717
-1297.893702 -3526.637581 166.661088
-1298.323820 -3528.508595 166.100459
-1298.753938 -3530.379609 165.539829
-1299.184056 -3532.250623 164.979200
-1299.614174 -3534.121637 164.418571
-1300.044292 -3535.992651 163.857941
-1300.474411 -3537.863665 163.297312
-1300.904529 -3539.734679 162.736682
-1301.334647 -3541.605693 162.176053
-1301.764765 -3543.476706 161.615424
-1302.194883 -3545.347720 161.054794
-1302.625001 -3547.218734 160.494165
-1303.055119 -3549.089748 159.933535
-1303.485237 -3550.960762 159.372906
-1303.915356 -3552.831776 158.812277
-1304.345474 -3554.702790 158.251647
-1304.775592 -3556.573804 157.691018
-1305.205710 -3558.444818 157.130388
-1305.635828 -3560.315832 156.569759
-1306.065946 -3562.186846 156.009130
-1306.496064 -3564.057860 155.448500
-1306.926182 -3565.928874 154.887871
-1307.356300 -3567.799887 154.327242
-1307.786419 -3569.670901 153.766612
-1308.216537 -3571.541915 153.205983
-1308.646655 -3573.412929 152.645353
-1309.076773 -3575.283943 152.084724
-1309.506891 -3577.154957 151.524095
-1309.937009 -3579.025971 150.963465
-1310.367127 -3580.896985 150.402836
-1310.797245 -3582.767999 149.842206
-1311.227364 -3584.639013 149.281577
-1311.657482 -3586.510027 148.720948
-1312.087600 -3588.381041 148.160318
-1312.517718 -3590.252054 147.599689
-1312.947836 -3592.123068 147.039059
-1313.377954 -3593.994082 146.478430
-1313.808072 -3595.865096 145.917801
-1314.238190 -3597.736110 145.357171
-1314.668309 -3599.607124 144.796542
-1315.098427 -3601.478138 144.235912
-1315.528545 -3603.349152 143.675283
-1315.958663 -3605.220166 143.114654
-1316.388781 -3607.091180 142.554024
-1316.818899 -3608.962194 141.993395
-1317.249017 -3610.833208 141.432766
-1317.679135 -3612.704222 140.872136
-1318.109253 -3614.575235 140.311507
-1318.539372 -3616.446249 139.750877
-1318.969490 -3618.317263 139.190248
-1319.399608 -3620.188277 138.629619
-1319.829726 -3622.059291 138.068989
-1320.259844 -3623.930305 137.508360
-1320.689962 -3625.801319 136.947730
-1321.120080 -3627.672333 136.387101
-1321.550198 -3629.543347 135.826472
-1321.980317 -3631.414361 135.265842
-1322.410435 -3633.285375 134.705213
-1322.840553 -3635.156389 134.144583
-1323.270671 -3637.027402 133.583954
-1323.700789 -3638.898416 133.023325
-1324.130907 -3640.769430 132.462695
-1324.561025 -3642.640444 131.902066
-1324.991143 -3644.511458 131.341437
-1325.421262 -3646.382472 130.780807
-1325.851380 -3648.253486 130.220178
-1326.281498 -3650.124500 129.659548
-1326.711616 -3651.995514 129.098919
-1327.141734 -3653.866528 128.538290
-1327.571852 -3655.737542 127.977660
-1328.001970 -3657.608556 127.417031
-1328.432088 -3659.479570 126.856401
-1328.862206 -3661.350583 126.295772
-1329.292325 -3663.221597 125.735143
-1329.722443 -3665.092611 125.174513
-1330.152561 -3666.963625 124.613884
-1330.582679 -3668.834639 124.053254
-1331.012797 -3670.705653 123.492625
-1331.442915 -3672.576667 122.931996
-1331.873033 -3674.447681 122.371366
-1332.303151 -3676.318695 121.810737
-1332.733270 -3678.189709 121.250107
-1333.163388 -3680.060723 120.689478
-1333.593506 -3681.931737 120.128849
-1334.023624 -3683.802750 119.568219
-1334.453742 -3685.673764 119.007590
-1334.883860 -3687.544778 118.446961
-1335.313978 -3689.415792 117.886331
-1335.744096 -3691.286806 117.325702
-1336.174215 -3693.157820 116.765072
-1336.604333 -3695.028834 116.204443
-1337.034451 -3696.899848 115.643814
-1337.464569 -3698.770862 115.083184
-1337.894687 -3700.641876 114.522555
-1338.324805 -3702.512890 113.961925
-1338.754923 -3704.383904 113.401296
-1339.185041 -3706.254918 112.840667
-1339.615159 -3708.125931 112.280037
-1340.045278 -3709.996945 111.719408
-1340.475396 -3711.867959 111.158778
-1340.905514 -3713.738973 110.598149
-1341.335632 -3715.609987 110.037520
-1341.765750 -3717.481001 109.476890
-1342.195868 -3719.352015 108.916261
-1342.625986 -3721.223029 108.355632
-1343.056104 -3723.094043 107.795002
-1343.486223 -3724.965057 107.234373
-1343.916341 -3726.836071 106.673743
-1344.346459 -3728.707085 106.113114
-1344.776577 -3730.578098 105.552485
-1345.206695 -3732.449112 104.991855
-1345.636813 -3734.320126 104.431226
-1346.066931 -3736.191140 103.870596
-1346.497049 -3738.062154 103.309967
-1346.927167 -3739.933168 102.749338
-1347.357286 -3741.804182 102.188708
-1347.787404 -3743.675196 101.628079
-1348.217522 -3745.546210 101.067449
-1348.647640 -3747.417224 100.506820
-1349.077758 -3749.288238 99.946191
-1349.507876 -3751.159252 99.385561
-1349.937994 -3753.030266 98.824932
-1350.368112 -3754.901279 98.264302
-1350.798231 -3756.772293 97.703673
-1351.228349 -3758.643307 97.143044
-1351.658467 -3760.514321 96.582414
-1352.088585 -3762.385335 96.021785
-1352.518703 -3764.256349 95.461156
-1352.948821 -3766.127363 94.900526
-1353.378939 -3767.998377 94.339897
-1353.809057 -3769.869391 93.779267
-1354.239176 -3771.740405 93.218638
-1354.669294 -3773.611419 92.658009
-1355.099412 -3775.482433 92.097379
-1355.529530 -3777.353447 91.536750
-1355.959648 -3779.224460 90.976120
-1356.389766 -3781.095474 90.415491
-1356.819884 -3782.966488 89.854862
-1357.250002 -3784.837502 89.294232
-1357.680120 -3786.708516 88.733603
-1358.110239 -3788.579530 88.172973
-1358.540357 -3790.450544 87.612344
-1358.970475 -3792.321558 87.051715
-1359.400593 -3794.192572 86.491085
-1359.830711 -3796.063586 85.930456
-1360.260829 -3797.934600 85.369826
-1360.690947 -3799.805614 84.809197
-1361.121065 -3801.676627 84.248568
-1361.551184 -3803.547641 83.687938
-1361.981302 -3805.418655 83.127309
-1362.411420 -3807.289669 82.566680
-1362.841538 -3809.160683 82.006050
-1363.271656 -3811.031697 81.445421
-1363.701774 -3812.902711 80.884791
-1364.131892 -3814.773725 80.324162
-1364.562010 -3816.644739 79.763533
-1364.992129 -3818.515753 79.202903
-1365.422247 -3820.386767 78.642274
-1365.852365 -3822.257781 78.081644
-1366.282483 -3824.128795 77.521015
-1366.712601 -3825.999808 76.960386
-1367.142719 -3827.870822 76.399756
-1367.572837 -3829.741836 75.839127
-1368.002955 -3831.612850 75.278497
-1368.433073 -3833.483864 74.717868
-1368.863192 -3835.354878 74.157239
-1369.293310 -3837.225892 73.596609
-1369.723428 -3839.096906 73.035980
-1370.153546 -3840.967920 72.475351
-1370.583664 -3842.838934 71.914721
-1371.013782 -3844.709948 71.354092
-1371.443900 -3846.580962 70.793462
-1371.874018 -3848.451975 70.232833
-1372.304137 -3850.322989 69.672204
-1372.734255 -3852.194003 69.111574
-1373.164373 -3854.065017 68.550945
-1373.594491 -3855.936031 67.990315
-1374.024609 -3857.807045 67.429686
-1374.454727 -3859.678059 66.869057
-1374.884845 -3861.549073 66.308427
-1375.314963 -3863.420087 65.747798
-1375.745082 -3865.291101 65.187168
-1376.175200 -3867.162115 64.626539
-1376.605318 -3869.033129 64.065910
-1377.035436 -3870.904143 63.505280
-1377.465554 -3872.775156 62.944651
-1377.895672 -3874.646170 62.384021
-1378.325790 -3876.517184 61.823392
-1378.755908 -3878.388198 61.262763
-1379.186026 -3880.259212 60.702133
-1379.616145 -3882.130226 60.141504
-1380.046263 -3884.001240 59.580875
-1380.476381 -3885.872254 59.020245
-1380.906499 -3887.743268 58.459616
-1381.336617 -3889.614282 57.898986
-1381.766735 -3891.485296 57.338357
-1382.196853 -3893.356310 56.777728
-1382.626971 -3895.227323 56.217098
-1383.057090 -3897.098337 55.656469
-1383.487208 -3898.969351 55.095839
-1383.917326 -3900.840365 54.535210
-1384.347444 -3902.711379 53.974581
-1384.777562 -3904.582393 53.413951
-1385.207680 -3906.453407 52.853322
-1385.637798 -3908.324421 52.292692
-1386.067916 -3910.195435 51.732063
-1386.498034 -3912.066449 51.171434
-1386.928153 -3913.937463 50.610804
-1387.358271 -3915.808477 50.050175
-1387.788389 -3917.679491 49.489546
-1388.218507 -3919.550504 48.928916
-1388.648625 -3921.421518 48.368287
-1389.078743 -3923.292532 47.807657
-1389.508861 -3925.163546 47.247028
-1389.938979 -3927.034560 46.686399
-1390.369098 -3928.905574 46.125769
-1390.799216 -3930.776588 45.565140
-1391.229334 -3932.647602 45.004510
-1392.000000 -3936.000000 44.000000
-1393.697735 -3936.964873 43.567894
-1395.395470 -3937.929746 43.135788
-1397.093205 -3938.894620 42.703682
-1398.790940 -3939.859493 42.271576
-1400.488675 -3940.824366 41.839470
-1402.186410 -3941.789239 41.407364
-1403.884145 -3942.754113 40.975257
-1405.581880 -3943.718986 40.543151
-1407.279615 -3944.683859 40.111045
-1408.977350 -3945.648732 39.678939
-1410.675085 -3946.613606 39.246833
-1412.372819 -3947.578479 38.814727
-1414.070554 -3948.543352 38.382621
-1415.768289 -3949.508225 37.950515
-1417.466024 -3950.473098 37.518409
-1419.163759 -3951.437972 37.086303
-1420.861494 -3952.402845 36.654197
-1422.559229 -3953.367718 36.222091
-1424.256964 -3954.332591 35.789985
-1425.954699 -3955.297465 35.357878
-1427.652434 -3956.262338 34.925772
-1429.350169 -3957.227211 34.493666
-1431.047904 -3958.192084 34.061560
-1432.745639 -3959.156958 33.629454
-1434.443374 -3960.121831 33.197348
-1436.141109 -3961.086704 32.765242
-1437.838844 -3962.051577 32.333136
-1439.536579 -3963.016450 31.901030
-1441.234314 -3963.981324 31.468924
-1442.932049 -3964.946197 31.036818
-1444.629784 -3965.911070 30.604712
-1446.327519 -3966.875943 30.172606
-1448.025254 -3967.840817 29.740499
-1449.722989 -3968.805690 29.308393
-1451.420724 -3969.770563 28.876287
-1453.118458 -3970.735436 28.444181
-1454.816193 -3971.700310 28.012075
-1456.513928 -3972.665183 27.579969
-1458.211663 -3973.630056 27.147863
-1459.909398 -3974.594929 26.715757
-1461.607133 -3975.559802 26.283651
-1463.304868 -3976.524676 25.851545
-1465.002603 -3977.489549 25.419439
-1466.700338 -3978.454422 24.987333
-1468.398073 -3979.419295 24.555227
-1470.095808 -3980.384169 24.123120
-1471.793543 -3981.349042 23.691014
-1473.491278 -3982.313915 23.258908
-1475.189013 -3983.278788 22.826802
-1476.886748 -3984.243661 22.394696
-1478.584483 -3985.208535 21.962590
-1480.282218 -3986.173408 21.530484
-1481.979953 -3987.138281 21.098378
-1483.677688 -3988.103154 20.666272
-1485.375423 -3989.068028 20.234166
-1487.073158 -3990.032901 19.802060
-1488.770893 -3990.997774 19.369954
-1490.468628 -3991.962647 18.937848
-1492.166363 -3992.927521 18.505741
-1493.864097 -3993.892394 18.073635
-1495.561832 -3994.857267 17.641529
-1497.259567 -3995.822140 17.209423
-1498.957302 -3996.787013 16.777317
-1500.655037 -3997.751887 16.345211
-1502.352772 -3998.716760 15.913105
-1504.050507 -3999.681633 15.480999
-1505.748242 -4000.646506 15.048893
-1507.445977 -4001.611380 14.616787
-1509.143712 -4002.576253 14.184681
-1510.841447 -4003.541126 13.752575
-1512.539182 -4004.505999 13.320468
-1514.236917 -4005.470873 12.888362
-1515.934652 -4006.435746 12.456256
-1517.632387 -4007.400619 12.024150
-1519.330122 -4008.365492 11.592044
-1521.027857 -4009.330365 11.159938
-1522.725592 -4010.295239 10.727832
-1524.423327 -4011.260112 10.295726
-1526.121062 -4012.224985 9.863620
-1527.818797 -4013.189858 9.431514
-1529.516532 -4014.154732 8.999408
-1531.214267 -4015.119605 8.567302
-1532.912002 -4016.084478 8.135196
-1534.609736 -4017.049351 7.703089
-1536.307471 -4018.014225 7.270983
-1538.005206 -4018.979098 6.838877
-1539.702941 -4019.943971 6.406771
-1541.400676 -4020.908844 5.974665
-1543.098411 -4021.873717 5.542559
-1544.796146 -4022.838591 5.110453
-1546.493881 -4023.803464 4.678347
-1548.191616 -4024.768337 4.246241
-1549.889351 -4025.733210 3.814135
-1551.587086 -4026.698084 3.382029
-1553.284821 -4027.662957 2.949923
-1554.982556 -4028.627830 2.517817
-1556.680291 -4029.592703 2.085710
-1558.378026 -4030.557577 1.653604
-1560.075761 -4031.522450 1.221498
-1561.773496 -4032.487323 0.789392
-1563.471231 -4033.452196 0.357286
-1565.168966 -4034.417069 -0.074820
-1566.866701 -4035.381943 -0.506926
-1568.564436 -4036.346816 -0.939032
-1570.262171 -4037.311689 -1.371138
-1571.959906 -4038.276562 -1.803244
-1573.657641 -4039.241436 -2.235350
-1575.355375 -4040.206309 -2.667456
-1577.053110 -4041.171182 -3.099562
-1578.750845 -4042.136055 -3.531669
-1580.448580 -4043.100929 -3.963775
-1582.146315 -4044.065802 -4.395881
-1583.844050 -4045.030675 -4.827987
-1585.541785 -4045.995548 -5.260093
-1587.239520 -4046.960421 -5.692199
-1588.937255 -4047.925295 -6.124305
-1590.634990 -4048.890168 -6.556411
-1592.332725 -4049.855041 -6.988517
-1594.030460 -4050.819914 -7.420623
-1595.728195 -4051.784788 -7.852729
-1597.425930 -4052.749661 -8.284835
-1599.123665 -4053.714534 -8.716941
-1600.821400 -4054.679407 -9.149048
-1602.519135 -4055.644281 -9.581154
-1604.216870 -4056.609154 -10.013260
-1605.914605 -4057.574027 -10.445366
-1607.612340 -4058.538900 -10.877472
-1609.310075 -4059.503773 -11.309578
-1611.007810 -4060.468647 -11.741684
-1612.705545 -4061.433520 -12.173790
-1614.403280 -4062.398393 -12.605896
-1616.101014 -4063.363266 -13.038002
-1617.798749 -4064.328140 -13.470108
-1619.496484 -4065.293013 -13.902214
-1621.194219 -4066.257886 -14.334320
-1622.891954 -4067.222759 -14.766427
-1624.589689 -4068.187633 -15.198533
-1626.287424 -4069.152506 -15.630639
-1627.985159 -4070.117379 -16.062745
-1629.682894 -4071.082252 -16.494851
-1631.380629 -4072.047125 -16.926957
-1633.078364 -4073.011999 -17.359063
-1634.776099 -4073.976872 -17.791169
-1636.473834 -4074.941745 -18.223275
-1638.171569 -4075.906618 -18.655381
-1639.869304 -4076.871492 -19.087487
-1641.567039 -4077.836365 -19.519593
-1643.264774 -4078.801238 -19.951699
-1644.962509 -4079.766111 -20.383806
-1646.660244 -4080.730984 -20.815912
-1648.357979 -4081.695858 -21.248018
-1650.055714 -4082.660731 -21.680124
-1651.753449 -4083.625604 -22.112230
-1653.451184 -4084.590477 -22.544336
-1655.148919 -4085.555351 -22.976442
-1656.846653 -4086.520224 -23.408548
-1658.544388 -4087.485097 -23.840654
-1660.242123 -4088.449970 -24.272760
-1661.939858 -4089.414844 -24.704866
-1663.637593 -4090.379717 -25.136972
-1665.335328 -4091.344590 -25.569078
-1667.033063 -4092.309463 -26.001185
-1668.730798 -4093.274336 -26.433291
-1670.428533 -4094.239210 -26.865397
-1672.126268 -4095.204083 -27.297503
-1673.824003 -4096.168956 -27.729609
-1675.521738 -4097.133829 -28.161715
-1677.219473 -4098.098703 -28.593821
-1678.917208 -4099.063576 -29.025927
-1680.614943 -4100.028449 -29.458033
-1682.312678 -4100.993322 -29.890139
-1684.010413 -4101.958196 -30.322245
-1685.708148 -4102.923069 -30.754351
-1687.405883 -4103.887942 -31.186457
-1689.103618 -4104.852815 -31.618564
-1690.801353 -4105.817688 -32.050670
-1692.499088 -4106.782562 -32.482776
-1694.196823 -4107.747435 -32.914882
-1695.894557 -4108.712308 -33.346988
-1697.592292 -4109.677181 -33.779094
-1699.290027 -4110.642055 -34.211200
-1700.987762 -4111.606928 -34.643306
-1702.685497 -4112.571801 -35.075412
-1704.383232 -4113.536674 -35.507518
-1706.080967 -4114.501548 -35.939624
-1707.778702 -4115.466421 -36.371730
-1709.476437 -4116.431294 -36.803837
-1711.174172 -4117.396167 -37.235943
-1712.871907 -4118.361040 -37.668049
-1714.569642 -4119.325914 -38.100155
-1716.267377 -4120.290787 -38.532261
-1717.965112 -4121.255660 -38.964367
-1719.662847 -4122.220533 -39.396473
-1721.360582 -4123.185407 -39.828579
-1723.058317 -4124.150280 -40.260685
-1724.756052 -4125.115153 -40.692791
-1726.453787 -4126.080026 -41.124897
-1728.151522 -4127.044900 -41.557003
-1729.849257 -4128.009773 -41.989109
-1731.546992 -4128.974646 -42.421216
-1733.244727 -4129.939519 -42.853322
-1734.942462 -4130.904392 -43.285428
-1736.640196 -4131.869266 -43.717534
-1738.337931 -4132.834139 -44.149640
-1740.035666 -4133.799012 -44.581746
-1741.733401 -4134.763885 -45.013852
-1743.431136 -4135.728759 -45.445958
-1745.128871 -4136.693632 -45.878064
-1746.826606 -4137.658505 -46.310170
-1748.524341 -4138.623378 -46.742276
-1750.222076 -4139.588252 -47.174382
-1751.919811 -4140.553125 -47.606488
-1753.617546 -4141.517998 -48.038595
-1755.315281 -4142.482871 -48.470701
-1757.013016 -4143.447744 -48.902807
-1758.710751 -4144.412618 -49.334913
-1760.408486 -4145.377491 -49.767019
-1762.106221 -4146.342364 -50.199125
-1763.803956 -4147.307237 -50.631231
-1765.501691 -4148.272111 -51.063337
-1767.199426 -4149.236984 -51.495443
-1768.897161 -4150.201857 -51.927549
-1770.594896 -4151.166730 -52.359655
-1772.292631 -4152.131604 -52.791761
-1773.990366 -4153.096477 -53.223867
-1775.688101 -4154.061350 -53.655974
-1777.385835 -4155.026223 -54.088080
-1779.083570 -4155.991096 -54.520186
-1780.781305 -4156.955970 -54.952292
-1782.479040 -4157.920843 -55.384398
-1784.176775 -4158.885716 -55.816504
-1785.874510 -4159.850589 -56.248610
-1787.572245 -4160.815463 -56.680716
-1789.269980 -4161.780336 -57.112822
-1790.967715 -4162.745209 -57.544928
-1792.665450 -4163.710082 -57.977034
-1794.363185 -4164.674956 -58.409140
-1796.060920 -4165.639829 -58.841246
-1797.758655 -4166.604702 -59.273353
-1799.456390 -4167.569575 -59.705459
-1801.154125 -4168.534448 -60.137565
-1802.851860 -4169.499322 -60.569671
-1804.549595 -4170.464195 -61.001777
-1806.247330 -4171.429068 -61.433883
-1807.945065 -4172.393941 -61.865989
-1809.642800 -4173.358815 -62.298095
-1811.340535 -4174.323688 -62.730201
-1813.038270 -4175.288561 -63.162307
-1814.736005 -4176.253434 -63.594413
-1816.433740 -4177.218307 -64.026519
-1818.131474 -4178.183181 -64.458625
-1819.829209 -4179.148054 -64.890732
-1821.526944 -4180.112927 -65.322838
-1823.224679 -4181.077800 -65.754944
-1824.922414 -4182.042674 -66.187050
-1826.620149 -4183.007547 -66.619156
-1828.317884 -4183.972420 -67.051262
-1830.015619 -4184.937293 -67.483368
-1831.713354 -4185.902167 -67.915474
-1833.411089 -4186.867040 -68.347580
-1835.108824 -4187.831913 -68.779686
-1836.806559 -4188.796786 -69.211792
-1838.504294 -4189.761659 -69.643898
-1840.202029 -4190.726533 -70.076004
-1841.899764 -4191.691406 -70.508111
-1843.597499 -4192.656279 -70.940217
-1845.295234 -4193.621152 -71.372323
-1846.992969 -4194.586026 -71.804429
-1848.690704 -4195.550899 -72.236535
-1850.388439 -4196.515772 -72.668641
-1852.086174 -4197.480645 -73.100747
-1853.783909 -4198.445519 -73.532853
-1855.481644 -4199.410392 -73.964959
-1857.179379 -4200.375265 -74.397065
-1858.877113 -4201.340138 -74.829171
-1860.574848 -4202.305011 -75.261277
-1862.272583 -4203.269885 -75.693383
-1863.970318 -4204.234758 -76.125490
-1865.668053 -4205.199631 -76.557596
-1867.365788 -4206.164504 -76.989702
-1869.063523 -4207.129378 -77.421808
-1870.761258 -4208.094251 -77.853914
-1872.458993 -4209.059124 -78.286020
-1874.156728 -4210.023997 -78.718126
-1875.854463 -4210.988871 -79.150232
-1877.552198 -4211.953744 -79.582338
-1879.249933 -4212.918617 -80.014444
-1880.947668 -4213.883490 -80.446550
-1882.645403 -4214.848363 -80.878656
-1884.343138 -4215.813237 -81.310762
-1886.040873 -4216.778110 -81.742869
-1887.738608 -4217.742983 -82.174975
-1889.436343 -4218.707856 -82.607081
-1891.134078 -4219.672730 -83.039187
-1892.831813 -4220.637603 -83.471293
-1894.529548 -4221.602476 -83.903399
-1896.227283 -4222.567349 -84.335505
-1897.925018 -4223.532223 -84.767611
-1899.622752 -4224.497096 -85.199717
-1901.320487 -4225.461969 -85.631823
-1903.018222 -4226.426842 -86.063929
-1904.715957 -4227.391715 -86.496035
-1906.413692 -4228.356589 -86.928141
-1908.111427 -4229.321462 -87.360248
-1909.809162 -4230.286335 -87.792354
-1911.506897 -4231.251208 -88.224460
-1913.204632 -4232.216082 -88.656566
-1914.902367 -4233.180955 -89.088672
-1916.600102 -4234.145828 -89.520778
-1918.297837 -4235.110701 -89.952884
-1919.995572 -4236.075575 -90.384990
-1921.693307 -4237.040448 -90.817096
-1923.391042 -4238.005321 -91.249202
-1925.088777 -4238.970194 -91.681308
-1926.786512 -4239.935067 -92.113414
-1928.484247 -4240.899941 -92.545521
-1930.181982 -4241.864814 -92.977627
-1931.879717 -4242.829687 -93.409733
-1933.577452 -4243.794560 -93.841839
-1935.275187 -4244.759434 -94.273945
-1936.972922 -4245.724307 -94.706051
-1938.670656 -4246.689180 -95.138157
-1940.368391 -4247.654053 -95.570263
-1942.066126 -4248.618927 -96.002369
-1943.763861 -4249.583800 -96.434475
-1945.461596 -4250.548673 -96.866581
-1947.159331 -4251.513546 -97.298687
-1948.857066 -4252.478419 -97.730793
-1950.554801 -4253.443293 -98.162900
-1952.252536 -4254.408166 -98.595006
-1953.950271 -4255.373039 -99.027112
-1955.648006 -4256.337912 -99.459218
-1957.345741 -4257.302786 -99.891324
-1959.043476 -4258.267659 -100.323430
-1960.741211 -4259.232532 -100.755536
-1962.438946 -4260.197405 -101.187642
-1964.136681 -4261.162278 -101.619748
-1965.834416 -4262.127152 -102.051854
-1967.532151 -4263.092025 -102.483960
-1969.229886 -4264.056898 -102.916066
-1970.927621 -4265.021771 -103.348172
-1972.625356 -4265.986645 -103.780279
-1974.323091 -4266.951518 -104.212385
-1976.020826 -4267.916391 -104.644491
-1977.718561 -4268.881264 -105.076597
-1979.416295 -4269.846138 -105.508703
-1981.114030 -4270.811011 -105.940809
-1982.811765 -4271.775884 -106.372915
-1984.509500 -4272.740757 -106.805021
-1986.207235 -4273.705630 -107.237127
-1987.904970 -4274.670504 -107.669233
-1989.602705 -4275.635377 -108.101339
-1991.300440 -4276.600250 -108.533445
-1992.998175 -4277.565123 -108.965551
-1994.695910 -4278.529997 -109.397658
-1996.393645 -4279.494870 -109.829764
-1998.091380 -4280.459743 -110.261870
-1999.789115 -4281.424616 -110.693976
-2001.486850 -4282.389490 -111.126082
-2003.184585 -4283.354363 -111.558188
-2004.882320 -4284.319236 -111.990294
-2006.580055 -4285.284109 -112.422400
-2008.277790 -4286.248982 -112.854506
-2009.975525 -4287.213856 -113.286612
-2011.673260 -4288.178729 -113.718718
-2013.370995 -4289.143602 -114.150824
-2015.068730 -4290.108475 -114.582930
-2016.766465 -4291.073349 -115.015037
-2018.464200 -4292.038222 -115.447143
-2020.161934 -4293.003095 -115.879249
-2021.859669 -4293.967968 -116.311355
-2023.557404 -4294.932842 -116.743461
-2025.255139 -4295.897715 -117.175567
-2026.952874 -4296.862588 -117.607673
-2028.650609 -4297.827461 -118.039779
-2030.348344 -4298.792334 -118.471885
-2032.046079 -4299.757208 -118.903991
-2033.743814 -4300.722081 -119.336097
-2035.441549 -4301.686954 -119.768203
-2037.139284 -4302.651827 -120.200309
-2038.837019 -4303.616701 -120.632416
-2040.534754 -4304.581574 -121.064522
-2042.232489 -4305.546447 -121.496628
-2043.930224 -4306.511320 -121.928734
-2045.627959 -4307.476194 -122.360840
-2047.325694 -4308.441067 -122.792946
-2049.023429 -4309.405940 -123.225052
-2050.721164 -4310.370813 -123.657158
-2052.418899 -4311.335686 -124.089264
-2054.116634 -4312.300560 -124.521370
-2055.814369 -4313.265433 -124.953476
-2057.512104 -4314.230306 -125.385582
-2059.209839 -4315.195179 -125.817688
-2060.907573 -4316.160053 -126.249795
-2062.605308 -4317.124926 -126.681901
-2064.303043 -4318.089799 -127.114007
-2066.000778 -4319.054672 -127.546113
-2067.698513 -4320.019546 -127.978219
-2069.396248 -4320.984419 -128.410325
-2071.093983 -4321.949292 -128.842431
-2072.791718 -4322.914165 -129.274537
-2074.489453 -4323.879038 -129.706643
-2076.187188 -4324.843912 -130.138749
-2077.884923 -4325.808785 -130.570855
-2079.582658 -4326.773658 -131.002961
-2081.280393 -4327.738531 -131.435067
-2082.978128 -4328.703405 -131.867174
-2084.675863 -4329.668278 -132.299280
-2086.373598 -4330.633151 -132.731386
-2088.071333 -4331.598024 -133.163492
-2089.769068 -4332.562898 -133.595598
-2091.466803 -4333.527771 -134.027704
-2093.164538 -4334.492644 -134.459810
-2094.862273 -4335.457517 -134.891916
-2096.560008 -4336.422390 -135.324022
-2098.257743 -4337.387264 -135.756128
-2099.955478 -4338.352137 -136.188234
-2101.653212 -4339.317010 -136.620340
-2103.350947 -4340.281883 -137.052446
-2105.048682 -4341.246757 -137.484553
-2106.746417 -4342.211630 -137.916659
-2108.444152 -4343.176503 -138.348765
-2110.141887 -4344.141376 -138.780871
-2111.839622 -4345.106250 -139.212977
-2113.537357 -4346.071123 -139.645083
-2115.235092 -4347.035996 -140.077189
-2116.932827 -4348.000869 -140.509295
-2118.630562 -4348.965742 -140.941401
-2120.328297 -4349.930616 -141.373507
-2122.026032 -4350.895489 -141.805613
-2123.723767 -4351.860362 -142.237719
-2125.421502 -4352.825235 -142.669825
-2127.119237 -4353.790109 -143.101932
-2128.816972 -4354.754982 -143.534038
-2130.514707 -4355.719855 -143.966144
-2132.212442 -4356.684728 -144.398250
-2133.910177 -4357.649601 -144.830356
-2135.607912 -4358.614475 -145.262462
-2137.305647 -4359.579348 -145.694568
-2139.003382 -4360.544221 -146.126674
-2140.701117 -4361.509094 -146.558780
-2142.398851 -4362.473968 -146.990886
-2144.096586 -4363.438841 -147.422992
-2145.794321 -4364.403714 -147.855098
-2147.492056 -4365.368587 -148.287205
-2149.189791 -4366.333461 -148.719311
-2150.887526 -4367.298334 -149.151417
-2152.585261 -4368.263207 -149.583523
-2154.282996 -4369.228080 -150.015629
-2155.980731 -4370.192953 -150.447735
-2157.678466 -4371.157827 -150.879841
-2159.376201 -4372.122700 -151.311947
-2161.073936 -4373.087573 -151.744053
-2162.771671 -4374.052446 -152.176159
-2164.469406 -4375.017320 -152.608265
-2166.167141 -4375.982193 -153.040371
-2167.864876 -4376.947066 -153.472477
-2169.562611 -4377.911939 -153.904584
-2171.260346 -4378.876813 -154.336690
-2172.958081 -4379.841686 -154.768796
-2174.655816 -4380.806559 -155.200902
-2176.353551 -4381.771432 -155.633008
-2178.051286 -4382.736305 -156.065114
-2179.749021 -4383.701179 -156.497220
-2181.446756 -4384.666052 -156.929326
-2183.144490 -4385.630925 -157.361432
-2184.842225 -4386.595798 -157.793538
-2186.539960 -4387.560672 -158.225644
-2188.237695 -4388.525545 -158.657750
-2189.935430 -4389.490418 -159.089856
-2191.633165 -4390.455291 -159.521963
-2193.330900 -4391.420165 -159.954069
-2195.028635 -4392.385038 -160.386175
-2196.726370 -4393.349911 -160.818281
-2198.424105 -4394.314784 -161.250387
-2200.121840 -4395.279657 -161.682493
-2201.819575 -4396.244531 -162.114599
-2203.517310 -4397.209404 -162.546705
-2205.215045 -4398.174277 -162.978811
-2206.912780 -4399.139150 -163.410917
-2208.610515 -4400.104024 -163.843023
-2210.308250 -4401.068897 -164.275129
-2212.005985 -4402.033770 -164.707235
-2213.703720 -4402.998643 -165.139342
-2215.401455 -4403.963517 -165.571448
-2217.099190 -4404.928390 -166.003554
-2218.796925 -4405.893263 -166.435660
-2220.494660 -4406.858136 -166.867766
-2222.192394 -4407.823009 -167.299872
-2223.890129 -4408.787883 -167.731978
-2225.587864 -4409.752756 -168.164084
-2227.285599 -4410.717629 -168.596190
-2228.983334 -4411.682502 -169.028296
-2230.681069 -4412.647376 -169.460402
-2232.378804 -4413.612249 -169.892508
-2234.076539 -4414.577122 -170.324614
-2235.774274 -4415.541995 -170.756721
-2237.472009 -4416.506869 -171.188827
-2239.169744 -4417.471742 -171.620933
-2240.867479 -4418.436615 -172.053039
-2242.565214 -4419.401488 -172.485145
-2244.262949 -4420.366361 -172.917251
-2245.960684 -4421.331235 -173.349357
-2247.658419 -4422.296108 -173.781463
-2249.356154 -4423.260981 -174.213569
-2251.053889 -4424.225854 -174.645675
-2252.751624 -4425.190728 -175.077781
-2254.449359 -4426.155601 -175.509887
-2256.147094 -4427.120474 -175.941993
-2257.844829 -4428.085347 -176.374100
-2259.542564 -4429.050221 -176.806206
-2261.240299 -4430.015094 -177.238312
-2262.938033 -4430.979967 -177.670418
-2264.635768 -4431.944840 -178.102524
-2266.333503 -4432.909713 -178.534630
-2268.031238 -4433.874587 -178.966736
-2269.728973 -4434.839460 -179.398842
-2271.426708 -4435.804333 -179.830948
-2273.124443 -4436.769206 -180.263054
-2274.822178 -4437.734080 -180.695160
-2276.519913 -4438.698953 -181.127266
-2278.217648 -4439.663826 -181.559372
-2279.915383 -4440.628699 -181.991479
-2281.613118 -4441.593573 -182.423585
-2283.310853 -4442.558446 -182.855691
-2285.008588 -4443.523319 -183.287797
-2286.706323 -4444.488192 -183.719903
-2288.404058 -4445.453065 -184.152009
-2290.101793 -4446.417939 -184.584115
-2291.799528 -4447.382812 -185.016221
-2293.497263 -4448.347685 -185.448327
-2295.194998 -4449.312558 -185.880433
-2296.892733 -4450.277432 -186.312539
-2298.590468 -4451.242305 -186.744645
-2300.288203 -4452.207178 -187.176751
-2301.985938 -4453.172051 -187.608858
-2303.683672 -4454.136924 -188.040964
-2305.381407 -4455.101798 -188.473070
-2307.079142 -4456.066671 -188.905176
-2308.776877 -4457.031544 -189.337282
-2310.474612 -4457.996417 -189.769388
-2312.172347 -4458.961291 -190.201494
-2313.870082 -4459.926164 -190.633600
-2315.567817 -4460.891037 -191.065706
-2317.265552 -4461.855910 -191.497812
-2318.963287 -4462.820784 -191.929918
-2320.661022 -4463.785657 -192.362024
-2322.358757 -4464.750530 -192.794130
-2324.056492 -4465.715403 -193.226237
-2325.754227 -4466.680276 -193.658343
-2327.451962 -4467.645150 -194.090449
-2329.149697 -4468.610023 -194.522555
-2330.847432 -4469.574896 -194.954661
-2332.545167 -4470.539769 -195.386767
-2334.242902 -4471.504643 -195.818873
-2335.940637 -4472.469516 -196.250979
-2337.638372 -4473.434389 -196.683085
-2339.336107 -4474.399262 -197.115191
-2341.033842 -4475.364136 -197.547297
-2342.731577 -4476.329009 -197.979403
-2344.429311 -4477.293882 -198.411510
-2346.127046 -4478.258755 -198.843616
-2347.824781 -4479.223628 -199.275722
-2349.522516 -4480.188502 -199.707828
-2351.220251 -4481.153375 -200.139934
-2352.917986 -4482.118248 -200.572040
-2354.615721 -4483.083121 -201.004146
-2356.313456 -4484.047995 -201.436252
-2358.011191 -4485.012868 -201.868358
-2359.708926 -4485.977741 -202.300464
-2361.406661 -4486.942614 -202.732570
-2363.104396 -4487.907488 -203.164676
-2364.802131 -4488.872361 -203.596782
-2366.499866 -4489.837234 -204.028889
-2368.197601 -4490.802107 -204.460995
-2369.895336 -4491.766980 -204.893101
-2371.593071 -4492.731854 -205.325207
-2373.290806 -4493.696727 -205.757313
-2374.988541 -4494.661600 -206.189419
-2376.686276 -4495.626473 -206.621525
-2378.384011 -4496.591347 -207.053631
-2380.081746 -4497.556220 -207.485737
-2381.779481 -4498.521093 -207.917843
-2383.477216 -4499.485966 -208.349949
-2385.174950 -4500.450840 -208.782055
-2386.872685 -4501.415713 -209.214161
-2388.570420 -4502.380586 -209.646268
-2390.268155 -4503.345459 -210.078374
-2391.965890 -4504.310332 -210.510480
-2393.663625 -4505.275206 -210.942586
-2395.361360 -4506.240079 -211.374692
-2397.059095 -4507.204952 -211.806798
-2398.756830 -4508.169825 -212.238904
-2400.454565 -4509.134699 -212.671010
-2402.152300 -4510.099572 -213.103116
-2403.850035 -4511.064445 -213.535222
-2405.547770 -4512.029318 -213.967328
-2407.245505 -4512.994192 -214.399434
-2408.943240 -4513.959065 -214.831540
-2410.640975 -4514.923938 -215.263647
-2412.338710 -4515.888811 -215.695753
-2414.036445 -4516.853684 -216.127859
-2415.734180 -4517.818558 -216.559965
-2417.431915 -4518.783431 -216.992071
-2419.129650 -4519.748304 -217.424177
-2420.827385 -4520.713177 -217.856283
-2422.525120 -4521.678051 -218.288389
-2424.222855 -4522.642924 -218.720495
-2425.920589 -4523.607797 -219.152601
-2427.618324 -4524.572670 -219.584707
-2429.316059 -4525.537544 -220.016813
-2431.013794 -4526.502417 -220.448919
-2432.711529 -4527.467290 -220.881026
-2434.409264 -4528.432163 -221.313132
-2436.106999 -4529.397036 -221.745238
-2437.804734 -4530.361910 -222.177344
-2439.502469 -4531.326783 -222.609450
-2441.200204 -4532.291656 -223.041556
-2442.897939 -4533.256529 -223.473662
-2444.595674 -4534.221403 -223.905768
-2446.293409 -4535.186276 -224.337874
-2447.991144 -4536.151149 -224.769980
-2449.688879 -4537.116022 -225.202086
-2451.386614 -4538.080895 -225.634192
-2453.084349 -4539.045769 -226.066298
-2454.782084 -4540.010642 -226.498405
-2456.479819 -4540.975515 -226.930511
-2458.177554 -4541.940388 -227.362617
-2459.875289 -4542.905262 -227.794723
-2461.573024 -4543.870135 -228.226829
-2463.270759 -4544.835008 -228.658935
-2464.968493 -4545.799881 -229.091041
-2466.666228 -4546.764755 -229.523147
-2468.363963 -4547.729628 -229.955253
-2470.061698 -4548.694501 -230.387359
-2471.759433 -4549.659374 -230.819465
-2473.457168 -4550.624247 -231.251571
-2475.154903 -4551.589121 -231.683677
-2476.852638 -4552.553994 -232.115784
-2478.550373 -4553.518867 -232.547890
-2480.248108 -4554.483740 -232.979996
-2481.945843 -4555.448614 -233.412102
-2483.643578 -4556.413487 -233.844208
-2485.341313 -4557.378360 -234.276314
-2487.039048 -4558.343233 -234.708420
-2488.736783 -4559.308107 -235.140526
-2490.434518 -4560.272980 -235.572632
-2492.132253 -4561.237853 -236.004738
-2493.829988 -4562.202726 -236.436844
-2495.527723 -4563.167599 -236.868950
-2497.225458 -4564.132473 -237.301056
-2498.923193 -4565.097346 -237.733163
-2500.620928 -4566.062219 -238.165269
-2502.318663 -4567.027092 -238.597375
-2504.016398 -4567.991966 -239.029481
-2505.714132 -4568.956839 -239.461587
-2507.411867 -4569.921712 -239.893693
-2509.109602 -4570.886585 -240.325799
-2510.807337 -4571.851459 -240.757905
-2512.505072 -4572.816332 -241.190011
-2514.202807 -4573.781205 -241.622117
-2515.900542 -4574.746078 -242.054223
-2517.598277 -4575.710951 -242.486329
-2519.296012 -4576.675825 -242.918435
-2520.993747 -4577.640698 -243.350542
-2522.691482 -4578.605571 -243.782648
-2524.389217 -4579.570444 -244.214754
-2526.086952 -4580.535318 -244.646860
-2527.784687 -4581.500191 -245.078966
-2529.482422 -4582.465064 -245.511072
-2531.180157 -4583.429937 -245.943178
-2532.877892 -4584.394811 -246.375284
-2534.575627 -4585.359684 -246.807390
-2536.273362 -4586.324557 -247.239496
-2537.971097 -4587.289430 -247.671602
-2539.668832 -4588.254303 -248.103708
-2541.366567 -4589.219177 -248.535814
-2543.064302 -4590.184050 -248.967921
-2544.762037 -4591.148923 -249.400027
-2546.459771 -4592.113796 -249.832133
-2548.157506 -4593.078670 -250.264239
-2549.855241 -4594.043543 -250.696345
-2551.552976 -4595.008416 -251.128451
-2553.250711 -4595.973289 -251.560557
-2554.948446 -4596.938163 -251.992663
-2556.646181 -4597.903036 -252.424769
-2558.343916 -4598.867909 -252.856875
-2560.041651 -4599.832782 -253.288981
-2561.739386 -4600.797655 -253.721087
-2563.437121 -4601.762529 -254.153194
-2565.134856 -4602.727402 -254.585300
-2566.832591 -4603.692275 -255.017406
-2568.530326 -4604.657148 -255.449512
-2570.228061 -4605.622022 -255.881618
-2571.925796 -4606.586895 -256.313724
-2573.623531 -4607.551768 -256.745830
-2575.321266 -4608.516641 -257.177936
-2577.019001 -4609.481515 -257.610042
-2578.716736 -4610.446388 -258.042148
-2580.414471 -4611.411261 -258.474254
-2582.112206 -4612.376134 -258.906360
-2583.809941 -4613.341007 -259.338466
-2585.507676 -4614.305881 -259.770573
-2587.205410 -4615.270754 -260.202679
-2588.903145 -4616.235627 -260.634785
-2590.600880 -4617.200500 -261.066891
-2592.298615 -4618.165374 -261.498997
-2593.996350 -4619.130247 -261.931103
-2595.694085 -4620.095120 -262.363209
-2597.391820 -4621.059993 -262.795315
-2599.089555 -4622.024867 -263.227421
-2600.787290 -4622.989740 -263.659527
-2602.485025 -4623.954613 -264.091633
-2604.182760 -4624.919486 -264.523739
-2605.880495 -4625.884359 -264.955845
-2607.578230 -4626.849233 -265.387952
-2609.275965 -4627.814106 -265.820058
-2610.973700 -4628.778979 -266.252164
-2612.671435 -4629.743852 -266.684270
-2614.369170 -4630.708726 -267.116376
-2616.066905 -4631.673599 -267.548482
-2617.764640 -4632.638472 -267.980588
-2619.462375 -4633.603345 -268.412694
-2621.160110 -4634.568218 -268.844800
-2622.857845 -4635.533092 -269.276906
-2624.555580 -4636.497965 -269.709012
-2626.253315 -4637.462838 -270.141118
-2627.951049 -4638.427711 -270.573224
-2629.648784 -4639.392585 -271.005331
-2631.346519 -4640.357458 -271.437437
-2633.044254 -4641.322331 -271.869543
-2634.741989 -4642.287204 -272.301649
-2636.439724 -4643.252078 -272.733755
-2638.137459 -4644.216951 -273.165861
-2639.835194 -4645.181824 -273.597967
-2641.532929 -4646.146697 -274.030073
-2643.230664 -4647.111570 -274.462179
-2644.928399 -4648.076444 -274.894285
-2646.626134 -4649.041317 -275.326391
-2648.323869 -4650.006190 -275.758497
-2650.021604 -4650.971063 -276.190603
-2651.719339 -4651.935937 -276.622710
-2653.417074 -4652.900810 -277.054816
-2655.114809 -4653.865683 -277.486922
-2656.812544 -4654.830556 -277.919028
-2658.510279 -4655.795430 -278.351134
-2660.208014 -4656.760303 -278.783240
-2661.905749 -4657.725176 -279.215346
-2663.603484 -4658.690049 -279.647452
-2665.301219 -4659.654922 -280.079558
-2666.998954 -4660.619796 -280.511664
-2668.696688 -4661.584669 -280.943770
-2670.394423 -4662.549542 -281.375876
-2672.092158 -4663.514415 -281.807982
-2673.789893 -4664.479289 -282.240089
-2675.487628 -4665.444162 -282.672195
-2677.185363 -4666.409035 -283.104301
-2678.883098 -4667.373908 -283.536407
-2680.580833 -4668.338782 -283.968513
-2682.278568 -4669.303655 -284.400619
-2683.976303 -4670.268528 -284.832725
-2685.674038 -4671.233401 -285.264831
-2687.371773 -4672.198274 -285.696937
-2689.069508 -4673.163148 -286.129043
-2690.767243 -4674.128021 -286.561149
-2692.464978 -4675.092894 -286.993255
-2694.162713 -4676.057767 -287.425361
-2695.860448 -4677.022641 -287.857468
-2697.558183 -4677.987514 -288.289574
-2699.255918 -4678.952387 -288.721680
-2700.953653 -4679.917260 -289.153786
-2702.651388 -4680.882134 -289.585892
-2704.349123 -4681.847007 -290.017998
-2706.046858 -4682.811880 -290.450104
-2707.744593 -4683.776753 -290.882210
-2709.442327 -4684.741626 -291.314316
-2711.140062 -4685.706500 -291.746422
-2712.837797 -4686.671373 -292.178528
-2714.535532 -4687.636246 -292.610634
-2716.233267 -4688.601119 -293.042740
-2717.931002 -4689.565993 -293.474847
-2719.628737 -4690.530866 -293.906953
-2721.326472 -4691.495739 -294.339059
-2723.024207 -4692.460612 -294.771165
-2724.721942 -4693.425486 -295.203271
-2726.419677 -4694.390359 -295.635377
-2728.117412 -4695.355232 -296.067483
-2729.815147 -4696.320105 -296.499589
-2731.512882 -4697.284978 -296.931695
-2733.210617 -4698.249852 -297.363801
-2734.908352 -4699.214725 -297.795907
-2736.606087 -4700.179598 -298.228013
-2738.303822 -4701.144471 -298.660119
-2740.001557 -4702.109345 -299.092226
-2741.699292 -4703.074218 -299.524332
-2743.397027 -4704.039091 -299.956438
-2745.094762 -4705.003964 -300.388544
-2746.792497 -4705.968838 -300.820650
-2748.490231 -4706.933711 -301.252756
-2750.187966 -4707.898584 -301.684862
-2751.885701 -4708.863457 -302.116968
-2753.583436 -4709.828330 -302.549074
-2755.281171 -4710.793204 -302.981180
-2756.978906 -4711.758077 -303.413286
-2758.676641 -4712.722950 -303.845392
-2760.374376 -4713.687823 -304.277498
-2762.072111 -4714.652697 -304.709605
-2763.769846 -4715.617570 -305.141711
-2765.467581 -4716.582443 -305.573817
-2767.165316 -4717.547316 -306.005923
-2768.863051 -4718.512190 -306.438029
-2770.560786 -4719.477063 -306.870135
-2772.258521 -4720.441936 -307.302241
-2775.000000 -4722.000000 -308.000000
-2776.989219 -4722.186957 -308.089739
-2778.978439 -4722.373913 -308.179478
-2780.967658 -4722.560870 -308.269218
-2782.956878 -4722.747827 -308.358957
-2784.946097 -4722.934784 -308.448696
-2786.935317 -4723.121740 -308.538435
-2788.924536 -4723.308697 -308.628175
-2790.913756 -4723.495654 -308.717914
-2792.902975 -4723.682610 -308.807653
-2794.892195 -4723.869567 -308.897392
-2796.881414 -4724.056524 -308.987131
-2798.870634 -4724.243481 -309.076871
-2800.859853 -4724.430437 -309.166610
-2802.849072 -4724.617394 -309.256349
-2804.838292 -4724.804351 -309.346088
-2806.827511 -4724.991307 -309.435828
-2808.816731 -4725.178264 -309.525567
-2810.805950 -4725.365221 -309.615306
-2812.795170 -4725.552178 -309.705045
-2814.784389 -4725.739134 -309.794784
-2816.773609 -4725.926091 -309.884524
-2818.762828 -4726.113048 -309.974263
-2820.752048 -4726.300004 -310.064002
-2822.741267 -4726.486961 -310.153741
-2824.730486 -4726.673918 -310.243481
-2826.719706 -4726.860875 -310.333220
-2828.708925 -4727.047831 -310.422959
-2830.698145 -4727.234788 -310.512698
-2832.687364 -4727.421745 -310.602437
-2834.676584 -4727.608701 -310.692177
-2836.665803 -4727.795658 -310.781916
-2838.655023 -4727.982615 -310.871655
-2840.644242 -4728.169572 -310.961394
-2842.633462 -4728.356528 -311.051134
-2844.622681 -4728.543485 -311.140873
-2846.611901 -4728.730442 -311.230612
-2848.601120 -4728.917398 -311.320351
-2850.590339 -4729.104355 -311.410091
-2852.579559 -4729.291312 -311.499830
-2854.568778 -4729.478269 -311.589569
-2856.557998 -4729.665225 -311.679308
-2858.547217 -4729.852182 -311.769047
-2860.536437 -4730.039139 -311.858787
-2862.525656 -4730.226096 -311.948526
-2864.514876 -4730.413052 -312.038265
-2866.504095 -4730.600009 -312.128004
-2868.493315 -4730.786966 -312.217744
-2870.482534 -4730.973922 -312.307483
-2872.471754 -4731.160879 -312.397222
-2874.460973 -4731.347836 -312.486961
-2876.450192 -4731.534793 -312.576700
-2878.439412 -4731.721749 -312.666440
-2880.428631 -4731.908706 -312.756179
-2882.417851 -4732.095663 -312.845918
-2884.407070 -4732.282619 -312.935657
-2886.396290 -4732.469576 -313.025397
-2888.385509 -4732.656533 -313.115136
-2890.374729 -4732.843490 -313.204875
-2892.363948 -4733.030446 -313.294614
-2894.353168 -4733.217403 -313.384353
-2896.342387 -4733.404360 -313.474093
-2898.331606 -4733.591316 -313.563832
-2900.320826 -4733.778273 -313.653571
-2902.310045 -4733.965230 -313.743310
-2904.299265 -4734.152187 -313.833050
-2906.288484 -4734.339143 -313.922789
-2908.277704 -4734.526100 -314.012528
-2910.266923 -4734.713057 -314.102267
-2912.256143 -4734.900013 -314.192006
-2914.245362 -4735.086970 -314.281746
-2916.234582 -4735.273927 -314.371485
-2918.223801 -4735.460884 -314.461224
-2920.213021 -4735.647840 -314.550963
-2922.202240 -4735.834797 -314.640703
-2924.191459 -4736.021754 -314.730442
-2926.180679 -4736.208710 -314.820181
-2928.169898 -4736.395667 -314.909920
-2930.159118 -4736.582624 -314.999659
-2932.148337 -4736.769581 -315.089399
-2934.137557 -4736.956537 -315.179138
-2936.126776 -4737.143494 -315.268877
-2938.115996 -4737.330451 -315.358616
-2940.105215 -4737.517407 -315.448356
-2942.094435 -4737.704364 -315.538095
-2944.083654 -4737.891321 -315.627834
-2946.072874 -4738.078278 -315.717573
-2948.062093 -4738.265234 -315.807312
-2950.051312 -4738.452191 -315.897052
-2952.040532 -4738.639148 -315.986791
-2954.029751 -4738.826104 -316.076530
-2956.018971 -4739.013061 -316.166269
-2958.008190 -4739.200018 -316.256009
-2959.997410 -4739.386975 -316.345748
-2961.986629 -4739.573931 -316.435487
-2963.975849 -4739.760888 -316.525226
-2965.965068 -4739.947845 -316.614965
-2967.954288 -4740.134801 -316.704705
-2969.943507 -4740.321758 -316.794444
-2971.932726 -4740.508715 -316.884183
-2973.921946 -4740.695672 -316.973922
-2975.911165 -4740.882628 -317.063662
-2977.900385 -4741.069585 -317.153401
-2979.889604 -4741.256542 -317.243140
