-2264.000000 -3380.000000 -116.000000
-2264.000000 -3382.000000 -116.000000
-2264.000000 -3384.000000 -116.000000
-2264.000000 -3386.000000 -116.000000
-2264.000000 -3388.000000 -116.000000
-2264.000000 -3390.000000 -116.000000
-2264.000000 -3392.000000 -116.000000
-2264.000000 -3394.000000 -116.000000
-2264.000000 -3396.000000 -116.000000
-2264.000000 -3398.000000 -116.000000
-2264.000000 -3400.000000 -116.000000
-2264.000000 -3402.000000 -116.000000
-2264.000000 -3404.000000 -116.000000
-2264.000000 -3406.000000 -116.000000
-2264.000000 -3408.000000 -116.000000
-2264.000000 -3410.000000 -116.000000
-2264.000000 -3412.000000 -116.000000
-2264.000000 -3414.000000 -116.000000
-2264.000000 -3416.000000 -116.000000
-2264.000000 -3418.000000 -116.000000
-2264.000000 -3420.000000 -116.000000
-2264.000000 -3422.000000 -116.000000
-2264.000000 -3424.000000 -116.000000
-2264.000000 -3426.000000 -116.000000
-2264.000000 -3428.000000 -116.000000
-2264.000000 -3430.000000 -116.000000
-2264.000000 -3432.000000 -116.000000
-2264.000000 -3434.000000 -116.000000
-2264.000000 -3436.000000 -116.000000
-2264.000000 -3438.000000 -116.000000
-2264.000000 -3440.000000 -116.000000
-2264.000000 -3442.000000 -116.000000
-2264.000000 -3444.000000 -116.000000
-2264.000000 -3446.000000 -116.000000
-2264.000000 -3448.000000 -116.000000
-2264.000000 -3450.000000 -116.000000
-2264.000000 -3452.000000 -116.000000
-2264.000000 -3454.000000 -116.000000
-2264.000000 -3456.000000 -116.000000
-2264.000000 -3458.000000 -116.000000
-2264.000000 -3460.000000 -116.000000
-2264.000000 -3462.000000 -116.000000
-2264.000000 -3464.000000 -116.000000
-2264.000000 -3466.000000 -116.000000
-2264.000000 -3468.000000 -116.000000
-2264.000000 -3470.000000 -116.000000
-2264.000000 -3472.000000 -116.000000
-2264.000000 -3474.000000 -116.000000
-2264.000000 -3476.000000 -116.000000
-2264.000000 -3478.000000 -116.000000
-2264.000000 -3480.000000 -116.000000
-2264.000000 -3482.000000 -116.000000
-2264.000000 -3484.000000 -116.000000
-2264.000000 -3486.000000 -116.000000
-2264.000000 -3488.000000 -116.000000
-2264.000000 -3490.000000 -116.000000
-2264.000000 -3492.000000 -116.000000
-2264.000000 -3494.000000 -116.000000
-2264.000000 -3496.000000 -116.000000
-2264.000000 -3498.000000 -116.000000
-2264.000000 -3500.000000 -116.000000
-2264.000000 -3502.000000 -116.000000
-2264.000000 -3504.000000 -116.000000
-2264.000000 -3506.000000 -116.000000
-2264.000000 -3508.000000 -116.000000
-2264.000000 -3510.000000 -116.000000
-2264.000000 -3512.000000 -116.000000
-2264.000000 -3514.000000 -116.000000
-2264.000000 -3516.000000 -116.000000
-2264.000000 -3518.000000 -116.000000
-2264.000000 -3520.000000 -116.000000
-2264.000000 -3522.000000 -116.000000
-2264.000000 -3524.000000 -116.000000
-2264.000000 -3526.000000 -116.000000
-2264.000000 -3528.000000 -116.000000
-2264.000000 -3530.000000 -116.000000
-2264.000000 -3532.000000 -116.000000
-2264.000000 -3534.000000 -116.000000
-2264.000000 -3536.000000 -116.000000
-2264.000000 -3538.000000 -116.000000
-2264.000000 -3540.000000 -116.000000
-2264.000000 -3542.000000 -116.000000
-2264.000000 -3544.000000 -116.000000
-2264.000000 -3546.000000 -116.000000
-2264.000000 -3548.000000 -116.000000
-2264.000000 -3550.000000 -116.000000
-2264.000000 -3552.000000 -116.000000
-2264.000000 -3554.000000 -116.000000
-2264.000000 -3556.000000 -116.000000
-2264.000000 -3558.000000 -116.000000
-2264.000000 -3560.000000 -116.000000
-2264.000000 -3562.000000 -116.000000
-2264.000000 -3564.000000 -116.000000
-2264.000000 -3566.000000 -116.000000
-2264.000000 -3568.000000 -116.000000
-2264.000000 -3570.000000 -116.000000
-2264.000000 -3572.000000 -116.000000
-2264.000000 -3574.000000 -116.000000
-2264.000000 -3576.000000 -116.000000
-2264.000000 -3578.000000 -116.000000
-2264.000000 -3580.000000 -116.000000
-2264.000000 -3582.000000 -116.000000
-2264.000000 -3584.000000 -116.000000
-2264.000000 -3586.000000 -116.000000
-2264.000000 -3588.000000 -116.000000
-2264.000000 -3590.000000 -116.000000
-2264.000000 -3592.000000 -116.000000
-2264.000000 -3594.000000 -116.000000
-2264.000000 -3596.000000 -116.000000
-2264.000000 -3598.000000 -116.000000
-2264.000000 -3600.000000 -116.000000
-2264.000000 -3602.000000 -116.000000
-2264.000000 -3604.000000 -116.000000
-2264.000000 -3606.000000 -116.000000
-2264.000000 -3608.000000 -116.000000
-2264.000000 -3610.000000 -116.000000
-2264.000000 -3612.000000 -116.000000
-2264.000000 -3614.000000 -116.000000
-2264.000000 -3616.000000 -116.000000
-2264.000000 -3618.000000 -116.000000
-2264.000000 -3620.000000 -116.000000
-2264.000000 -3622.000000 -116.000000
-2264.000000 -3624.000000 -116.000000
-2264.000000 -3626.000000 -116.000000
-2264.000000 -3628.000000 -116.000000
-2264.000000 -3630.000000 -116.000000
-2264.000000 -3632.000000 -116.000000
-2264.000000 -3634.000000 -116.000000
-2264.000000 -3636.000000 -116.000000
-2264.000000 -3638.000000 -116.000000
-2264.000000 -3640.000000 -116.000000
-2264.000000 -3642.000000 -116.000000
-2264.000000 -3644.000000 -116.000000
-2264.000000 -3646.000000 -116.000000
-2264.000000 -3648.000000 -116.000000
-2264.000000 -3650.000000 -116.000000
-2264.000000 -3652.000000 -116.000000
-2264.000000 -3654.000000 -116.000000
-2264.000000 -3656.000000 -116.000000
-2264.000000 -3658.000000 -116.000000
-2264.000000 -3660.000000 -116.000000
-2264.000000 -3662.000000 -116.000000
-2264.000000 -3664.000000 -116.000000
-2264.000000 -3666.000000 -116.000000
-2264.000000 -3668.000000 -116.000000
-2264.000000 -3670.000000 -116.000000
-2264.000000 -3672.000000 -116.000000
-2264.000000 -3674.000000 -116.000000
-2264.000000 -3676.000000 -116.000000
-2264.000000 -3678.000000 -116.000000
-2264.000000 -3680.000000 -116.000000
-2264.000000 -3682.000000 -116.000000
-2264.000000 -3684.000000 -116.000000
-2264.000000 -3686.000000 -116.000000
-2264.000000 -3688.000000 -116.000000
-2264.000000 -3690.000000 -116.000000
-2264.000000 -3692.000000 -116.000000
-2264.000000 -3694.000000 -116.000000
-2264.000000 -3696.000000 -116.000000
-2264.000000 -3698.000000 -116.000000
-2264.000000 -3700.000000 -116.000000
-2264.000000 -3702.000000 -116.000000
-2264.000000 -3704.000000 -116.000000
-2264.000000 -3706.000000 -116.000000
-2264.000000 -3708.000000 -116.000000
-2264.000000 -3710.000000 -116.000000
-2264.000000 -3712.000000 -116.000000
-2264.000000 -3714.000000 -116.000000
-2264.000000 -3716.000000 -116.000000
-2264.000000 -3718.000000 -116.000000
-2264.000000 -3720.000000 -116.000000
-2264.000000 -3722.000000 -116.000000
-2264.000000 -3724.000000 -116.000000
-2264.000000 -3726.000000 -116.000000
-2264.000000 -3728.000000 -116.000000
-2264.000000 -3730.000000 -116.000000
-2264.000000 -3732.000000 -116.000000
-2264.000000 -3734.000000 -116.000000
-2264.000000 -3736.000000 -116.000000
-2264.000000 -3738.000000 -116.000000
-2264.000000 -3740.000000 -116.000000
-2264.000000 -3742.000000 -116.000000
-2264.000000 -3744.000000 -116.000000
-2264.000000 -3746.000000 -116.000000
-2264.000000 -3748.000000 -116.000000
-2264.000000 -3750.000000 -116.000000
-2264.000000 -3752.000000 -116.000000
-2264.000000 -3754.000000 -116.000000
-2264.000000 -3756.000000 -116.000000
-2264.000000 -3758.000000 -116.000000
-2264.000000 -3760.000000 -116.000000
-2264.000000 -3762.000000 -116.000000
-2264.000000 -3764.000000 -116.000000
-2264.000000 -3766.000000 -116.000000
-2264.000000 -3768.000000 -116.000000
-2264.000000 -3770.000000 -116.000000
-2264.000000 -3772.000000 -116.000000
-2264.000000 -3774.000000 -116.000000
-2264.000000 -3776.000000 -116.000000
-2264.000000 -3778.000000 -116.000000
-2264.000000 -3780.000000 -116.000000
-2264.000000 -3782.000000 -116.000000
-2264.000000 -3784.000000 -116.000000
-2264.000000 -3786.000000 -116.000000
-2264.000000 -3788.000000 -116.000000
-2264.000000 -3790.000000 -116.000000
-2264.000000 -3792.000000 -116.000000
-2264.000000 -3794.000000 -116.000000
-2264.000000 -3796.000000 -116.000000
-2264.000000 -3798.000000 -116.000000
-2264.000000 -3800.000000 -116.000000
-2264.000000 -3802.000000 -116.000000
-2264.000000 -3804.000000 -116.000000
-2264.000000 -3806.000000 -116.000000
-2264.000000 -3808.000000 -116.000000
-2264.000000 -3810.000000 -116.000000
-2264.000000 -3812.000000 -116.000000
-2264.000000 -3814.000000 -116.000000
-2264.000000 -3816.000000 -116.000000
-2264.000000 -3818.000000 -116.000000
-2264.000000 -3820.000000 -116.000000
-2264.000000 -3822.000000 -116.000000
-2264.000000 -3824.000000 -116.000000
-2264.000000 -3826.000000 -116.000000
-2264.000000 -3828.000000 -116.000000
-2264.000000 -3830.000000 -116.000000
-2264.000000 -3832.000000 -116.000000
-2264.000000 -3834.000000 -116.000000
-2264.000000 -3836.000000 -116.000000
-2264.000000 -3838.000000 -116.000000
-2264.000000 -3840.000000 -116.000000
-2264.000000 -3842.000000 -116.000000
-2264.000000 -3844.000000 -116.000000
-2264.000000 -3846.000000 -116.000000
-2264.000000 -3848.000000 -116.000000
-2264.000000 -3850.000000 -116.000000
-2264.000000 -3852.000000 -116.000000
-2264.000000 -3854.000000 -116.000000
-2264.000000 -3856.000000 -116.000000
-2264.000000 -3858.000000 -116.000000
-2264.000000 -3860.000000 -116.000000
-2264.000000 -3862.000000 -116.000000
-2264.000000 -3864.000000 -116.000000
-2264.000000 -3866.000000 -116.000000
-2264.000000 -3868.000000 -116.000000
-2264.000000 -3870.000000 -116.000000
-2264.000000 -3872.000000 -116.000000
-2264.000000 -3874.000000 -116.000000
-2264.000000 -3876.000000 -116.000000
-2264.000000 -3878.000000 -116.000000
-2264.000000 -3880.000000 -116.000000
-2264.000000 -3882.000000 -116.000000
-2264.000000 -3884.000000 -116.000000
-2264.000000 -3886.000000 -116.000000
-2264.000000 -3888.000000 -116.000000
-2264.000000 -3890.000000 -116.000000
-2264.000000 -3892.000000 -116.000000
-2264.000000 -3894.000000 -116.000000
-2264.000000 -3896.000000 -116.000000
-2264.000000 -3898.000000 -116.000000
-2264.000000 -3900.000000 -116.000000
-2264.000000 -3902.000000 -116.000000
-2264.000000 -3904.000000 -116.000000
-2264.000000 -3906.000000 -116.000000
-2264.000000 -3908.000000 -116.000000
-2264.000000 -3910.000000 -116.000000
-2264.000000 -3912.000000 -116.000000
-2264.000000 -3914.000000 -116.000000
-2264.000000 -3916.000000 -116.000000
-2264.000000 -3918.000000 -116.000000
-2264.000000 -3920.000000 -116.000000
-2264.000000 -3922.000000 -116.000000
-2264.000000 -3924.000000 -116.000000
-2264.000000 -3926.000000 -116.000000
-2264.000000 -3928.000000 -116.000000
-2264.000000 -3930.000000 -116.000000
-2264.000000 -3932.000000 -116.000000
-2264.000000 -3936.000000 -116.000000
-2265.067960 -3937.642694 -116.401269
-2266.135920 -3939.285388 -116.802538
-2267.203881 -3940.928083 -117.203806
-2268.271841 -3942.570777 -117.605075
-2269.339801 -3944.213471 -118.006344
-2270.407761 -3945.856165 -118.407613
-2271.475722 -3947.498859 -118.808882
-2272.543682 -3949.141554 -119.210151
-2273.611642 -3950.784248 -119.611419
-2274.679602 -3952.426942 -120.012688
-2275.747563 -3954.069636 -120.413957
-2276.815523 -3955.712331 -120.815226
-2277.883483 -3957.355025 -121.216495
-2278.951443 -3958.997719 -121.617763
-2280.019403 -3960.640413 -122.019032
-2281.087364 -3962.283107 -122.420301
-2282.155324 -3963.925802 -122.821570
-2283.223284 -3965.568496 -123.222839
-2284.291244 -3967.211190 -123.624107
-2285.359205 -3968.853884 -124.025376
-2286.427165 -3970.496578 -124.426645
-2287.495125 -3972.139273 -124.827914
-2288.563085 -3973.781967 -125.229183
-2289.631046 -3975.424661 -125.630452
-2290.699006 -3977.067355 -126.031720
-2291.766966 -3978.710050 -126.432989
-2292.834926 -3980.352744 -126.834258
-2293.902887 -3981.995438 -127.235527
-2294.970847 -3983.638132 -127.636796
-2296.038807 -3985.280826 -128.038064
-2297.106767 -3986.923521 -128.439333
-2298.174727 -3988.566215 -128.840602
-2299.242688 -3990.208909 -129.241871
-2300.310648 -3991.851603 -129.643140
-2301.378608 -3993.494297 -130.044409
-2302.446568 -3995.136992 -130.445677
-2303.514529 -3996.779686 -130.846946
-2304.582489 -3998.422380 -131.248215
-2305.650449 -4000.065074 -131.649484
-2306.718409 -4001.707769 -132.050753
-2307.786370 -4003.350463 -132.452021
-2308.854330 -4004.993157 -132.853290
-2309.922290 -4006.635851 -133.254559
-2310.990250 -4008.278545 -133.655828
-2312.058210 -4009.921240 -134.057097
-2313.126171 -4011.563934 -134.458366
-2314.194131 -4013.206628 -134.859634
-2315.262091 -4014.849322 -135.260903
-2316.330051 -4016.492016 -135.662172
-2317.398012 -4018.134711 -136.063441
-2318.465972 -4019.777405 -136.464710
-2319.533932 -4021.420099 -136.865978
-2320.601892 -4023.062793 -137.267247
-2321.669853 -4024.705488 -137.668516
-2322.737813 -4026.348182 -138.069785
-2323.805773 -4027.990876 -138.471054
-2324.873733 -4029.633570 -138.872322
-2325.941694 -4031.276264 -139.273591
-2327.009654 -4032.918959 -139.674860
-2328.077614 -4034.561653 -140.076129
-2329.145574 -4036.204347 -140.477398
-2330.213534 -4037.847041 -140.878667
-2331.281495 -4039.489735 -141.279935
-2332.349455 -4041.132430 -141.681204
-2333.417415 -4042.775124 -142.082473
-2334.485375 -4044.417818 -142.483742
-2335.553336 -4046.060512 -142.885011
-2336.621296 -4047.703207 -143.286279
-2337.689256 -4049.345901 -143.687548
-2338.757216 -4050.988595 -144.088817
-2339.825177 -4052.631289 -144.490086
-2340.893137 -4054.273983 -144.891355
-2341.961097 -4055.916678 -145.292624
-2343.029057 -4057.559372 -145.693892
-2344.097017 -4059.202066 -146.095161
-2345.164978 -4060.844760 -146.496430
-2346.232938 -4062.487454 -146.897699
-2347.300898 -4064.130149 -147.298968
-2348.368858 -4065.772843 -147.700236
-2349.436819 -4067.415537 -148.101505
-2350.504779 -4069.058231 -148.502774
-2351.572739 -4070.700925 -148.904043
-2352.640699 -4072.343620 -149.305312
-2353.708660 -4073.986314 -149.706581
-2354.776620 -4075.629008 -150.107849
-2355.844580 -4077.271702 -150.509118
-2356.912540 -4078.914397 -150.910387
-2357.980500 -4080.557091 -151.311656
-2359.048461 -4082.199785 -151.712925
-2360.116421 -4083.842479 -152.114193
-2361.184381 -4085.485173 -152.515462
-2362.252341 -4087.127868 -152.916731
-2363.320302 -4088.770562 -153.318000
-2364.388262 -4090.413256 -153.719269
-2365.456222 -4092.055950 -154.120537
-2366.524182 -4093.698644 -154.521806
-2367.592143 -4095.341339 -154.923075
-2368.660103 -4096.984033 -155.324344
-2369.728063 -4098.626727 -155.725613
-2370.796023 -4100.269421 -156.126882
-2371.863984 -4101.912116 -156.528150
-2372.931944 -4103.554810 -156.929419
-2373.999904 -4105.197504 -157.330688
-2375.067864 -4106.840198 -157.731957
-2376.135824 -4108.482892 -158.133226
-2377.203785 -4110.125587 -158.534494
-2378.271745 -4111.768281 -158.935763
-2379.339705 -4113.410975 -159.337032
-2380.407665 -4115.053669 -159.738301
-2381.475626 -4116.696363 -160.139570
-2382.543586 -4118.339058 -160.540839
-2383.611546 -4119.981752 -160.942107
-2384.679506 -4121.624446 -161.343376
-2385.747467 -4123.267140 -161.744645
-2386.815427 -4124.909835 -162.145914
-2387.883387 -4126.552529 -162.547183
-2388.951347 -4128.195223 -162.948451
-2390.019307 -4129.837917 -163.349720
-2391.087268 -4131.480611 -163.750989
-2392.155228 -4133.123306 -164.152258
-2393.223188 -4134.766000 -164.553527
-2394.291148 -4136.408694 -164.954795
-2395.359109 -4138.051388 -165.356064
-2396.427069 -4139.694082 -165.757333
-2397.495029 -4141.336777 -166.158602
-2398.562989 -4142.979471 -166.559871
-2399.630950 -4144.622165 -166.961140
-2400.698910 -4146.264859 -167.362408
-2401.766870 -4147.907554 -167.763677
-2402.834830 -4149.550248 -168.164946
-2403.902791 -4151.192942 -168.566215
-2404.970751 -4152.835636 -168.967484
-2406.038711 -4154.478330 -169.368752
-2407.106671 -4156.121025 -169.770021
-2408.174631 -4157.763719 -170.171290
-2409.242592 -4159.406413 -170.572559
-2410.310552 -4161.049107 -170.973828
-2411.378512 -4162.691801 -171.375097
-2412.446472 -4164.334496 -171.776365
-2413.514433 -4165.977190 -172.177634
-2414.582393 -4167.619884 -172.578903
-2415.650353 -4169.262578 -172.980172
-2416.718313 -4170.905273 -173.381441
-2417.786274 -4172.547967 -173.782709
-2418.854234 -4174.190661 -174.183978
-2419.922194 -4175.833355 -174.585247
-2420.990154 -4177.476049 -174.986516
-2422.058114 -4179.118744 -175.387785
-2423.126075 -4180.761438 -175.789054
-2424.194035 -4182.404132 -176.190322
-2425.261995 -4184.046826 -176.591591
-2426.329955 -4185.689520 -176.992860
-2427.397916 -4187.332215 -177.394129
-2428.465876 -4188.974909 -177.795398
-2429.533836 -4190.617603 -178.196666
-2430.601796 -4192.260297 -178.597935
-2431.669757 -4193.902992 -178.999204
-2432.737717 -4195.545686 -179.400473
-2433.805677 -4197.188380 -179.801742
-2434.873637 -4198.831074 -180.203010
-2435.941597 -4200.473768 -180.604279
-2437.009558 -4202.116463 -181.005548
-2438.077518 -4203.759157 -181.406817
-2439.145478 -4205.401851 -181.808086
-2440.213438 -4207.044545 -182.209355
-2441.281399 -4208.687239 -182.610623
-2442.349359 -4210.329934 -183.011892
-2443.417319 -4211.972628 -183.413161
-2444.485279 -4213.615322 -183.814430
-2445.553240 -4215.258016 -184.215699
-2446.621200 -4216.900710 -184.616967
-2447.689160 -4218.543405 -185.018236
-2448.757120 -4220.186099 -185.419505
-2449.825081 -4221.828793 -185.820774
-2450.893041 -4223.471487 -186.222043
-2451.961001 -4225.114182 -186.623312
-2453.028961 -4226.756876 -187.024580
-2454.096921 -4228.399570 -187.425849
-2455.164882 -4230.042264 -187.827118
-2456.232842 -4231.684958 -188.228387
-2457.300802 -4233.327653 -188.629656
-2458.368762 -4234.970347 -189.030924
-2459.436723 -4236.613041 -189.432193
-2460.504683 -4238.255735 -189.833462
-2461.572643 -4239.898429 -190.234731
-2462.640603 -4241.541124 -190.636000
-2463.708564 -4243.183818 -191.037268
-2464.776524 -4244.826512 -191.438537
-2465.844484 -4246.469206 -191.839806
-2466.912444 -4248.111901 -192.241075
-2467.980404 -4249.754595 -192.642344
-2469.048365 -4251.397289 -193.043613
-2470.116325 -4253.039983 -193.444881
-2471.184285 -4254.682677 -193.846150
-2472.252245 -4256.325372 -194.247419
-2473.320206 -4257.968066 -194.648688
-2474.388166 -4259.610760 -195.049957
-2475.456126 -4261.253454 -195.451225
-2476.524086 -4262.896148 -195.852494
-2477.592047 -4264.538843 -196.253763
-2478.660007 -4266.181537 -196.655032
-2479.727967 -4267.824231 -197.056301
-2480.795927 -4269.466925 -197.457570
-2481.863888 -4271.109620 -197.858838
-2482.931848 -4272.752314 -198.260107
-2483.999808 -4274.395008 -198.661376
-2485.067768 -4276.037702 -199.062645
-2486.135728 -4277.680396 -199.463914
-2487.203689 -4279.323091 -199.865182
-2488.271649 -4280.965785 -200.266451
-2489.339609 -4282.608479 -200.667720
-2490.407569 -4284.251173 -201.068989
-2491.475530 -4285.893867 -201.470258
-2492.543490 -4287.536562 -201.871527
-2493.611450 -4289.179256 -202.272795
-2494.679410 -4290.821950 -202.674064
-2495.747371 -4292.464644 -203.075333
-2496.815331 -4294.107339 -203.476602
-2497.883291 -4295.750033 -203.877871
-2498.951251 -4297.392727 -204.279139
-2500.019211 -4299.035421 -204.680408
-2501.087172 -4300.678115 -205.081677
-2502.155132 -4302.320810 -205.482946
-2503.223092 -4303.963504 -205.884215
-2504.291052 -4305.606198 -206.285483
-2505.359013 -4307.248892 -206.686752
-2506.426973 -4308.891586 -207.088021
-2507.494933 -4310.534281 -207.489290
-2508.562893 -4312.176975 -207.890559
-2509.630854 -4313.819669 -208.291828
-2510.698814 -4315.462363 -208.693096
-2511.766774 -4317.105058 -209.094365
-2512.834734 -4318.747752 -209.495634
-2513.902694 -4320.390446 -209.896903
-2514.970655 -4322.033140 -210.298172
-2516.038615 -4323.675834 -210.699440
-2517.106575 -4325.318529 -211.100709
-2518.174535 -4326.961223 -211.501978
-2519.242496 -4328.603917 -211.903247
-2520.310456 -4330.246611 -212.304516
-2521.378416 -4331.889305 -212.705785
-2522.446376 -4333.532000 -213.107053
-2523.514337 -4335.174694 -213.508322
-2524.582297 -4336.817388 -213.909591
-2525.650257 -4338.460082 -214.310860
-2526.718217 -4340.102776 -214.712129
-2527.786178 -4341.745471 -215.113397
-2528.854138 -4343.388165 -215.514666
-2529.922098 -4345.030859 -215.915935
-2530.990058 -4346.673553 -216.317204
-2532.058018 -4348.316248 -216.718473
-2533.125979 -4349.958942 -217.119742
-2534.193939 -4351.601636 -217.521010
-2535.261899 -4353.244330 -217.922279
-2536.329859 -4354.887024 -218.323548
-2537.397820 -4356.529719 -218.724817
-2538.465780 -4358.172413 -219.126086
-2539.533740 -4359.815107 -219.527354
-2540.601700 -4361.457801 -219.928623
-2541.669661 -4363.100495 -220.329892
-2542.737621 -4364.743190 -220.731161
-2543.805581 -4366.385884 -221.132430
-2544.873541 -4368.028578 -221.533698
-2545.941501 -4369.671272 -221.934967
-2547.009462 -4371.313967 -222.336236
-2548.077422 -4372.956661 -222.737505
-2549.145382 -4374.599355 -223.138774
-2550.213342 -4376.242049 -223.540043
-2551.281303 -4377.884743 -223.941311
-2552.349263 -4379.527438 -224.342580
-2553.417223 -4381.170132 -224.743849
-2554.485183 -4382.812826 -225.145118
-2555.553144 -4384.455520 -225.546387
-2556.621104 -4386.098214 -225.947655
-2557.689064 -4387.740909 -226.348924
-2558.757024 -4389.383603 -226.750193
-2559.824985 -4391.026297 -227.151462
-2560.892945 -4392.668991 -227.552731
-2561.960905 -4394.311686 -227.954000
-2563.028865 -4395.954380 -228.355268
-2564.096825 -4397.597074 -228.756537
-2565.164786 -4399.239768 -229.157806
-2566.232746 -4400.882462 -229.559075
-2567.300706 -4402.525157 -229.960344
-2568.368666 -4404.167851 -230.361612
-2569.436627 -4405.810545 -230.762881
-2570.504587 -4407.453239 -231.164150
-2571.572547 -4409.095933 -231.565419
-2572.640507 -4410.738628 -231.966688
-2573.708468 -4412.381322 -232.367956
-2574.776428 -4414.024016 -232.769225
-2575.844388 -4415.666710 -233.170494
-2576.912348 -4417.309405 -233.571763
-2577.980308 -4418.952099 -233.973032
-2579.048269 -4420.594793 -234.374301
-2580.116229 -4422.237487 -234.775569
-2581.184189 -4423.880181 -235.176838
-2582.252149 -4425.522876 -235.578107
-2583.320110 -4427.165570 -235.979376
-2584.388070 -4428.808264 -236.380645
-2585.456030 -4430.450958 -236.781913
-2586.523990 -4432.093652 -237.183182
-2587.591951 -4433.736347 -237.584451
-2588.659911 -4435.379041 -237.985720
-2589.727871 -4437.021735 -238.386989
-2590.795831 -4438.664429 -238.788258
-2591.863791 -4440.307124 -239.189526
-2592.931752 -4441.949818 -239.590795
-2593.999712 -4443.592512 -239.992064
-2595.067672 -4445.235206 -240.393333
-2596.135632 -4446.877900 -240.794602
-2597.203593 -4448.520595 -241.195870
-2598.271553 -4450.163289 -241.597139
-2599.339513 -4451.805983 -241.998408
-2600.407473 -4453.448677 -242.399677
-2601.475434 -4455.091371 -242.800946
-2602.543394 -4456.734066 -243.202215
-2603.611354 -4458.376760 -243.603483
-2604.679314 -4460.019454 -244.004752
-2605.747275 -4461.662148 -244.406021
-2606.815235 -4463.304842 -244.807290
-2607.883195 -4464.947537 -245.208559
-2608.951155 -4466.590231 -245.609827
-2610.019115 -4468.232925 -246.011096
-2611.087076 -4469.875619 -246.412365
-2612.155036 -4471.518314 -246.813634
-2613.222996 -4473.161008 -247.214903
-2614.290956 -4474.803702 -247.616171
-2615.358917 -4476.446396 -248.017440
-2616.426877 -4478.089090 -248.418709
-2617.494837 -4479.731785 -248.819978
-2618.562797 -4481.374479 -249.221247
-2619.630758 -4483.017173 -249.622516
-2620.698718 -4484.659867 -250.023784
-2621.766678 -4486.302561 -250.425053
-2622.834638 -4487.945256 -250.826322
-2623.902598 -4489.587950 -251.227591
-2624.970559 -4491.230644 -251.628860
-2626.038519 -4492.873338 -252.030128
-2627.106479 -4494.516033 -252.431397
-2628.174439 -4496.158727 -252.832666
-2629.242400 -4497.801421 -253.233935
-2630.310360 -4499.444115 -253.635204
-2631.378320 -4501.086809 -254.036473
-2632.446280 -4502.729504 -254.437741
-2633.514241 -4504.372198 -254.839010
-2634.582201 -4506.014892 -255.240279
-2635.650161 -4507.657586 -255.641548
-2636.718121 -4509.300280 -256.042817
-2637.786082 -4510.942975 -256.444085
-2638.854042 -4512.585669 -256.845354
-2639.922002 -4514.228363 -257.246623
-2640.989962 -4515.871057 -257.647892
-2642.057922 -4517.513752 -258.049161
-2643.125883 -4519.156446 -258.450429
-2644.193843 -4520.799140 -258.851698
-2645.261803 -4522.441834 -259.252967
-2646.329763 -4524.084528 -259.654236
-2647.397724 -4525.727223 -260.055505
-2648.465684 -4527.369917 -260.456774
-2649.533644 -4529.012611 -260.858042
-2650.601604 -4530.655305 -261.259311
-2651.669565 -4532.297999 -261.660580
-2652.737525 -4533.940694 -262.061849
-2653.805485 -4535.583388 -262.463118
-2654.873445 -4537.226082 -262.864386
-2655.941405 -4538.868776 -263.265655
-2657.009366 -4540.511471 -263.666924
-2658.077326 -4542.154165 -264.068193
-2659.145286 -4543.796859 -264.469462
-2660.213246 -4545.439553 -264.870731
-2661.281207 -4547.082247 -265.271999
-2662.349167 -4548.724942 -265.673268
-2663.417127 -4550.367636 -266.074537
-2664.485087 -4552.010330 -266.475806
-2665.553048 -4553.653024 -266.877075
-2666.621008 -4555.295718 -267.278343
-2667.688968 -4556.938413 -267.679612
-2668.756928 -4558.581107 -268.080881
-2669.824888 -4560.223801 -268.482150
-2670.892849 -4561.866495 -268.883419
-2671.960809 -4563.509190 -269.284688
-2673.028769 -4565.151884 -269.685956
-2674.096729 -4566.794578 -270.087225
-2675.164690 -4568.437272 -270.488494
-2676.232650 -4570.079966 -270.889763
-2677.300610 -4571.722661 -271.291032
-2678.368570 -4573.365355 -271.692300
-2679.436531 -4575.008049 -272.093569
-2680.504491 -4576.650743 -272.494838
-2681.572451 -4578.293437 -272.896107
-2682.640411 -4579.936132 -273.297376
-2683.708372 -4581.578826 -273.698644
-2684.776332 -4583.221520 -274.099913
-2685.844292 -4584.864214 -274.501182
-2686.912252 -4586.506909 -274.902451
-2687.980212 -4588.149603 -275.303720
-2689.048173 -4589.792297 -275.704989
-2690.116133 -4591.434991 -276.106257
-2691.184093 -4593.077685 -276.507526
-2692.252053 -4594.720380 -276.908795
-2693.320014 -4596.363074 -277.310064
-2694.387974 -4598.005768 -277.711333
-2695.455934 -4599.648462 -278.112601
-2696.523894 -4601.291156 -278.513870
-2697.591855 -4602.933851 -278.915139
-2698.659815 -4604.576545 -279.316408
-2699.727775 -4606.219239 -279.717677
-2700.795735 -4607.861933 -280.118946
-2701.863695 -4609.504627 -280.520214
-2702.931656 -4611.147322 -280.921483
-2703.999616 -4612.790016 -281.322752
-2705.067576 -4614.432710 -281.724021
-2706.135536 -4616.075404 -282.125290
-2707.203497 -4617.718099 -282.526558
-2708.271457 -4619.360793 -282.927827
-2709.339417 -4621.003487 -283.329096
-2710.407377 -4622.646181 -283.730365
-2711.475338 -4624.288875 -284.131634
-2712.543298 -4625.931570 -284.532903
-2713.611258 -4627.574264 -284.934171
-2714.679218 -4629.216958 -285.335440
-2715.747179 -4630.859652 -285.736709
-2716.815139 -4632.502346 -286.137978
-2717.883099 -4634.145041 -286.539247
-2718.951059 -4635.787735 -286.940515
-2720.019019 -4637.430429 -287.341784
-2721.086980 -4639.073123 -287.743053
-2722.154940 -4640.715818 -288.144322
-2723.222900 -4642.358512 -288.545591
-2724.290860 -4644.001206 -288.946859
-2725.358821 -4645.643900 -289.348128
-2726.426781 -4647.286594 -289.749397
-2727.494741 -4648.929289 -290.150666
-2728.562701 -4650.571983 -290.551935
-2729.630662 -4652.214677 -290.953204
-2730.698622 -4653.857371 -291.354472
-2731.766582 -4655.500065 -291.755741
-2732.834542 -4657.142760 -292.157010
-2733.902502 -4658.785454 -292.558279
-2734.970463 -4660.428148 -292.959548
-2736.038423 -4662.070842 -293.360816
-2737.106383 -4663.713537 -293.762085
-2738.174343 -4665.356231 -294.163354
-2739.242304 -4666.998925 -294.564623
-2740.310264 -4668.641619 -294.965892
-2741.378224 -4670.284313 -295.367161
-2742.446184 -4671.927008 -295.768429
-2743.514145 -4673.569702 -296.169698
-2744.582105 -4675.212396 -296.570967
-2745.650065 -4676.855090 -296.972236
-2746.718025 -4678.497784 -297.373505
-2747.785985 -4680.140479 -297.774773
-2748.853946 -4681.783173 -298.176042
-2749.921906 -4683.425867 -298.577311
-2750.989866 -4685.068561 -298.978580
-2752.057826 -4686.711256 -299.379849
-2753.125787 -4688.353950 -299.781117
-2754.193747 -4689.996644 -300.182386
-2755.261707 -4691.639338 -300.583655
-2756.329667 -4693.282032 -300.984924
-2757.397628 -4694.924727 -301.386193
-2758.465588 -4696.567421 -301.787462
-2759.533548 -4698.210115 -302.188730
-2760.601508 -4699.852809 -302.589999
-2761.669469 -4701.495503 -302.991268
-2762.737429 -4703.138198 -303.392537
-2763.805389 -4704.780892 -303.793806
-2764.873349 -4706.423586 -304.195074
-2765.941309 -4708.066280 -304.596343
-2767.009270 -4709.708975 -304.997612
-2768.077230 -4711.351669 -305.398881
-2769.145190 -4712.994363 -305.800150
-2770.213150 -4714.637057 -306.201419
-2771.281111 -4716.279751 -306.602687
-2772.349071 -4717.922446 -307.003956
-2773.417031 -4719.565140 -307.405225
-2775.000000 -4722.000000 -308.000000
-2776.989219 -4722.186957 -308.089739
-2778.978439 -4722.373913 -308.179478
-2780.967658 -4722.560870 -308.269218
-2782.956878 -4722.747827 -308.358957
-2784.946097 -4722.934784 -308.448696
-2786.935317 -4723.121740 -308.538435
-2788.924536 -4723.308697 -308.628175
-2790.913756 -4723.495654 -308.717914
-2792.902975 -4723.682610 -308.807653
-2794.892195 -4723.869567 -308.897392
-2796.881414 -4724.056524 -308.987131
-2798.870634 -4724.243481 -309.076871
-2800.859853 -4724.430437 -309.166610
-2802.849072 -4724.617394 -309.256349
-2804.838292 -4724.804351 -309.346088
-2806.827511 -4724.991307 -309.435828
-2808.816731 -4725.178264 -309.525567
-2810.805950 -4725.365221 -309.615306
-2812.795170 -4725.552178 -309.705045
-2814.784389 -4725.739134 -309.794784
-2816.773609 -4725.926091 -309.884524
-2818.762828 -4726.113048 -309.974263
-2820.752048 -4726.300004 -310.064002
-2822.741267 -4726.486961 -310.153741
-2824.730486 -4726.673918 -310.243481
-2826.719706 -4726.860875 -310.333220
-2828.708925 -4727.047831 -310.422959
-2830.698145 -4727.234788 -310.512698
-2832.687364 -4727.421745 -310.602437
-2834.676584 -4727.608701 -310.692177
-2836.665803 -4727.795658 -310.781916
-2838.655023 -4727.982615 -310.871655
-2840.644242 -4728.169572 -310.961394
-2842.633462 -4728.356528 -311.051134
-2844.622681 -4728.543485 -311.140873
-2846.611901 -4728.730442 -311.230612
-2848.601120 -4728.917398 -311.320351
-2850.590339 -4729.104355 -311.410091
-2852.579559 -4729.291312 -311.499830
-2854.568778 -4729.478269 -311.589569
-2856.557998 -4729.665225 -311.679308
-2858.547217 -4729.852182 -311.769047
-2860.536437 -4730.039139 -311.858787
-2862.525656 -4730.226096 -311.948526
-2864.514876 -4730.413052 -312.038265
-2866.504095 -4730.600009 -312.128004
-2868.493315 -4730.786966 -312.217744
-2870.482534 -4730.973922 -312.307483
-2872.471754 -4731.160879 -312.397222
-2874.460973 -4731.347836 -312.486961
-2876.450192 -4731.534793 -312.576700
-2878.439412 -4731.721749 -312.666440
-2880.428631 -4731.908706 -312.756179
-2882.417851 -4732.095663 -312.845918
-2884.407070 -4732.282619 -312.935657
-2886.396290 -4732.469576 -313.025397
-2888.385509 -4732.656533 -313.115136
-2890.374729 -4732.843490 -313.204875
-2892.363948 -4733.030446 -313.294614
-2894.353168 -4733.217403 -313.384353
-2896.342387 -4733.404360 -313.474093
-2898.331606 -4733.591316 -313.563832
-2900.320826 -4733.778273 -313.653571
-2902.310045 -4733.965230 -313.743310
-2904.299265 -4734.152187 -313.833050
-2906.288484 -4734.339143 -313.922789
-2908.277704 -4734.526100 -314.012528
-2910.266923 -4734.713057 -314.102267
-2912.256143 -4734.900013 -314.192006
-2914.245362 -4735.086970 -314.281746
-2916.234582 -4735.273927 -314.371485
-2918.223801 -4735.460884 -314.461224
-2920.213021 -4735.647840 -314.550963
-2922.202240 -4735.834797 -314.640703
-2924.191459 -4736.021754 -314.730442
-2926.180679 -4736.208710 -314.820181
-2928.169898 -4736.395667 -314.909920
-2930.159118 -4736.582624 -314.999659
-2932.148337 -4736.769581 -315.089399
-2934.137557 -4736.956537 -315.179138
-2936.126776 -4737.143494 -315.268877
-2938.115996 -4737.330451 -315.358616
-2940.105215 -4737.517407 -315.448356
-2942.094435 -4737.704364 -315.538095
-2944.083654 -4737.891321 -315.627834
-2946.072874 -4738.078278 -315.717573
-2948.062093 -4738.265234 -315.807312
-2950.051312 -4738.452191 -315.897052
-2952.040532 -4738.639148 -315.986791
-2954.029751 -4738.826104 -316.076530
-2956.018971 -4739.013061 -316.166269
-2958.008190 -4739.200018 -316.256009
-2959.997410 -4739.386975 -316.345748
-2961.986629 -4739.573931 -316.435487
-2963.975849 -4739.760888 -316.525226
-2965.965068 -4739.947845 -316.614965
-2967.954288 -4740.134801 -316.704705
-2969.943507 -4740.321758 -316.794444
-2971.932726 -4740.508715 -316.884183
-2973.921946 -4740.695672 -316.973922
-2975.911165 -4740.882628 -317.063662
-2977.900385 -4741.069585 -317.153401
-2979.889604 -4741.256542 -317.243140
-2981.878824 -4741.443498 -317.332879
-2983.868043 -4741.630455 -317.422618
-2985.857263 -4741.817412 -317.512358
-2987.846482 -4742.004369 -317.602097
-2989.835702 -4742.191325 -317.691836
-2991.824921 -4742.378282 -317.781575
-2993.814141 -4742.565239 -317.871315
-2995.803360 -4742.752195 -317.961054
-2997.792579 -4742.939152 -318.050793
-2999.781799 -4743.126109 -318.140532
-3001.771018 -4743.313066 -318.230272
-3003.760238 -4743.500022 -318.320011
-3005.749457 -4743.686979 -318.409750
-3007.738677 -4743.873936 -318.499489
-3009.727896 -4744.060893 -318.589228
-3011.717116 -4744.247849 -318.678968
-3013.706335 -4744.434806 -318.768707
-3015.695555 -4744.621763 -318.858446
-3017.684774 -4744.808719 -318.948185
-3019.673994 -4744.995676 -319.037925
-3021.663213 -4745.182633 -319.127664
-3023.652432 -4745.369590 -319.217403
-3025.641652 -4745.556546 -319.307142
-3027.630871 -4745.743503 -319.396881
-3029.620091 -4745.930460 -319.486621
-3031.609310 -4746.117416 -319.576360
-3033.598530 -4746.304373 -319.666099
-3035.587749 -4746.491330 -319.755838
-3037.576969 -4746.678287 -319.845578
-3039.566188 -4746.865243 -319.935317
-3041.555408 -4747.052200 -320.025056
-3043.544627 -4747.239157 -320.114795
-3045.533846 -4747.426113 -320.204534
-3047.523066 -4747.613070 -320.294274
-3049.512285 -4747.800027 -320.384013
-3051.501505 -4747.986984 -320.473752
-3053.490724 -4748.173940 -320.563491
-3055.479944 -4748.360897 -320.653231
-3057.469163 -4748.547854 -320.742970
-3059.458383 -4748.734810 -320.832709
-3061.447602 -4748.921767 -320.922448
-3063.436822 -4749.108724 -321.012187
-3065.426041 -4749.295681 -321.101927
-3067.415261 -4749.482637 -321.191666
-3069.404480 -4749.669594 -321.281405
-3071.393699 -4749.856551 -321.371144
-3073.382919 -4750.043507 -321.460884
-3075.372138 -4750.230464 -321.550623
-3077.361358 -4750.417421 -321.640362
-3079.350577 -4750.604378 -321.730101
-3081.339797 -4750.791334 -321.819840
-3083.329016 -4750.978291 -321.909580
-3085.318236 -4751.165248 -321.999319
-3087.307455 -4751.352204 -322.089058
-3089.296675 -4751.539161 -322.178797
-3091.285894 -4751.726118 -322.268537
-3093.275114 -4751.913075 -322.358276
-3095.264333 -4752.100031 -322.448015
-3097.253552 -4752.286988 -322.537754
-3099.242772 -4752.473945 -322.627493
-3101.231991 -4752.660901 -322.717233
-3103.221211 -4752.847858 -322.806972
-3105.210430 -4753.034815 -322.896711
-3107.199650 -4753.221772 -322.986450
-3109.188869 -4753.408728 -323.076190
-3111.178089 -4753.595685 -323.165929
-3113.167308 -4753.782642 -323.255668
-3115.156528 -4753.969598 -323.345407
-3117.145747 -4754.156555 -323.435146
-3119.134966 -4754.343512 -323.524886
-3121.124186 -4754.530469 -323.614625
-3123.113405 -4754.717425 -323.704364
-3125.102625 -4754.904382 -323.794103
-3127.091844 -4755.091339 -323.883843
-3129.081064 -4755.278295 -323.973582
-3131.070283 -4755.465252 -324.063321
-3133.059503 -4755.652209 -324.153060
-3135.048722 -4755.839166 -324.242799
-3137.037942 -4756.026122 -324.332539
-3139.027161 -4756.213079 -324.422278
-3141.016381 -4756.400036 -324.512017
-3143.005600 -4756.586992 -324.601756
-3144.994819 -4756.773949 -324.691496
-3146.984039 -4756.960906 -324.781235
-3148.973258 -4757.147863 -324.870974
-3150.962478 -4757.334819 -324.960713
-3152.951697 -4757.521776 -325.050453
-3154.940917 -4757.708733 -325.140192
-3156.930136 -4757.895689 -325.229931
-3158.919356 -4758.082646 -325.319670
-3160.908575 -4758.269603 -325.409409
-3162.897795 -4758.456560 -325.499149
-3164.887014 -4758.643516 -325.588888
-3166.876234 -4758.830473 -325.678627
-3168.865453 -4759.017430 -325.768366
-3170.854672 -4759.204387 -325.858106
-3172.843892 -4759.391343 -325.947845
-3174.833111 -4759.578300 -326.037584
-3176.822331 -4759.765257 -326.127323
-3178.811550 -4759.952213 -326.217062
-3180.800770 -4760.139170 -326.306802
-3182.789989 -4760.326127 -326.396541
-3184.779209 -4760.513084 -326.486280
-3186.768428 -4760.700040 -326.576019
-3188.757648 -4760.886997 -326.665759
-3190.746867 -4761.073954 -326.755498
-3192.736086 -4761.260910 -326.845237
-3194.725306 -4761.447867 -326.934976
-3196.714525 -4761.634824 -327.024715
-3198.703745 -4761.821781 -327.114455
-3200.692964 -4762.008737 -327.204194
-3202.682184 -4762.195694 -327.293933
-3204.671403 -4762.382651 -327.383672
-3206.660623 -4762.569607 -327.473412
-3208.649842 -4762.756564 -327.563151
-3210.639062 -4762.943521 -327.652890
-3212.628281 -4763.130478 -327.742629
-3214.617501 -4763.317434 -327.832368
-3216.606720 -4763.504391 -327.922108
-3218.595939 -4763.691348 -328.011847
-3220.585159 -4763.878304 -328.101586
-3222.574378 -4764.065261 -328.191325
-3224.563598 -4764.252218 -328.281065
-3226.552817 -4764.439175 -328.370804
-3228.542037 -4764.626131 -328.460543
-3230.531256 -4764.813088 -328.550282
-3232.520476 -4765.000045 -328.640021
-3234.509695 -4765.187001 -328.729761
-3236.498915 -4765.373958 -328.819500
-3238.488134 -4765.560915 -328.909239
-3240.477354 -4765.747872 -328.998978
-3242.466573 -4765.934828 -329.088718
-3244.455792 -4766.121785 -329.178457
-3246.445012 -4766.308742 -329.268196
-3248.434231 -4766.495698 -329.357935
-3250.423451 -4766.682655 -329.447674
-3252.412670 -4766.869612 -329.537414
-3254.401890 -4767.056569 -329.627153
-3256.391109 -4767.243525 -329.716892
-3258.380329 -4767.430482 -329.806631
-3260.369548 -4767.617439 -329.896371
-3262.358768 -4767.804395 -329.986110
-3264.347987 -4767.991352 -330.075849
-3266.337206 -4768.178309 -330.165588
-3268.326426 -4768.365266 -330.255327
-3270.315645 -4768.552222 -330.345067
-3272.304865 -4768.739179 -330.434806
-3274.294084 -4768.926136 -330.524545
-3276.283304 -4769.113092 -330.614284
-3278.272523 -4769.300049 -330.704024
-3280.261743 -4769.487006 -330.793763
-3282.250962 -4769.673963 -330.883502
-3284.240182 -4769.860919 -330.973241
-3286.229401 -4770.047876 -331.062981
-3288.218621 -4770.234833 -331.152720
-3290.207840 -4770.421789 -331.242459
-3292.197059 -4770.608746 -331.332198
-3294.186279 -4770.795703 -331.421937
-3296.175498 -4770.982660 -331.511677
-3298.164718 -4771.169616 -331.601416
-3300.153937 -4771.356573 -331.691155
-3302.143157 -4771.543530 -331.780894
-3304.132376 -4771.730486 -331.870634
-3307.000000 -4772.000000 -332.000000
-3305.543907 -4773.371056 -332.000000
-3304.087815 -4774.742112 -332.000000
-3302.631722 -4776.113167 -332.000000
-3301.175629 -4777.484223 -332.000000
-3299.719537 -4778.855279 -332.000000
-3298.263444 -4780.226335 -332.000000
-3296.807351 -4781.597391 -332.000000
-3295.351258 -4782.968447 -332.000000
-3293.895166 -4784.339502 -332.000000
-3292.439073 -4785.710558 -332.000000
-3290.982980 -4787.081614 -332.000000
-3289.526888 -4788.452670 -332.000000
-3288.070795 -4789.823726 -332.000000
-3286.614702 -4791.194782 -332.000000
-3285.158610 -4792.565837 -332.000000
-3283.702517 -4793.936893 -332.000000
-3282.246424 -4795.307949 -332.000000
-3280.790332 -4796.679005 -332.000000
-3279.334239 -4798.050061 -332.000000
-3277.878146 -4799.421117 -332.000000
-3276.422054 -4800.792172 -332.000000
-3274.965961 -4802.163228 -332.000000
-3273.509868 -4803.534284 -332.000000
-3272.053775 -4804.905340 -332.000000
-3270.597683 -4806.276396 -332.000000
-3269.141590 -4807.647452 -332.000000
-3267.685497 -4809.018507 -332.000000
-3266.229405 -4810.389563 -332.000000
-3264.773312 -4811.760619 -332.000000
-3263.317219 -4813.131675 -332.000000
-3261.861127 -4814.502731 -332.000000
-3260.405034 -4815.873787 -332.000000
-3258.948941 -4817.244842 -332.000000
-3257.492849 -4818.615898 -332.000000
-3256.036756 -4819.986954 -332.000000
-3254.580663 -4821.358010 -332.000000
-3253.124571 -4822.729066 -332.000000
-3251.668478 -4824.100121 -332.000000
-3250.212385 -4825.471177 -332.000000
-3248.756292 -4826.842233 -332.000000
-3247.300200 -4828.213289 -332.000000
-3245.844107 -4829.584345 -332.000000
-3244.388014 -4830.955401 -332.000000
-3242.931922 -4832.326456 -332.000000
-3241.475829 -4833.697512 -332.000000
-3240.019736 -4835.068568 -332.000000
-3238.563644 -4836.439624 -332.000000
-3237.107551 -4837.810680 -332.000000
-3235.651458 -4839.181736 -332.000000
-3234.195366 -4840.552791 -332.000000
-3232.739273 -4841.923847 -332.000000
-3231.283180 -4843.294903 -332.000000
-3229.827088 -4844.665959 -332.000000
-3228.370995 -4846.037015 -332.000000
-3226.914902 -4847.408071 -332.000000
-3225.458809 -4848.779126 -332.000000
-3224.002717 -4850.150182 -332.000000
-3222.546624 -4851.521238 -332.000000
-3221.090531 -4852.892294 -332.000000
-3219.634439 -4854.263350 -332.000000
-3218.178346 -4855.634406 -332.000000
-3216.722253 -4857.005461 -332.000000
-3215.266161 -4858.376517 -332.000000
-3213.810068 -4859.747573 -332.000000
-3212.353975 -4861.118629 -332.000000
-3210.897883 -4862.489685 -332.000000
-3209.441790 -4863.860740 -332.000000
-3207.985697 -4865.231796 -332.000000
-3206.529605 -4866.602852 -332.000000
-3205.073512 -4867.973908 -332.000000
-3203.617419 -4869.344964 -332.000000
-3202.161326 -4870.716020 -332.000000
-3200.705234 -4872.087075 -332.000000
-3199.249141 -4873.458131 -332.000000
-3197.793048 -4874.829187 -332.000000
-3196.336956 -4876.200243 -332.000000
-3194.880863 -4877.571299 -332.000000
-3193.424770 -4878.942355 -332.000000
-3191.968678 -4880.313410 -332.000000
-3190.512585 -4881.684466 -332.000000
-3189.056492 -4883.055522 -332.000000
-3187.600400 -4884.426578 -332.000000
-3186.144307 -4885.797634 -332.000000
-3184.688214 -4887.168690 -332.000000
-3183.232122 -4888.539745 -332.000000
-3181.776029 -4889.910801 -332.000000
-3180.319936 -4891.281857 -332.000000
-3178.863843 -4892.652913 -332.000000
-3177.407751 -4894.023969 -332.000000
-3175.951658 -4895.395025 -332.000000
-3174.495565 -4896.766080 -332.000000
-3173.039473 -4898.137136 -332.000000
-3171.583380 -4899.508192 -332.000000
-3170.127287 -4900.879248 -332.000000
-3168.671195 -4902.250304 -332.000000
-3167.215102 -4903.621360 -332.000000
-3165.759009 -4904.992415 -332.000000
-3164.302917 -4906.363471 -332.000000
-3162.846824 -4907.734527 -332.000000
-3161.390731 -4909.105583 -332.000000
-3159.934639 -4910.476639 -332.000000
-3158.478546 -4911.847694 -332.000000
-3157.022453 -4913.218750 -332.000000
-3155.566360 -4914.589806 -332.000000
-3154.110268 -4915.960862 -332.000000
-3152.654175 -4917.331918 -332.000000
-3151.198082 -4918.702974 -332.000000
-3149.741990 -4920.074029 -332.000000
-3148.285897 -4921.445085 -332.000000
-3146.829804 -4922.816141 -332.000000
-3145.373712 -4924.187197 -332.000000
-3143.917619 -4925.558253 -332.000000
-3142.461526 -4926.929309 -332.000000
-3141.005434 -4928.300364 -332.000000
-3139.549341 -4929.671420 -332.000000
-3138.093248 -4931.042476 -332.000000
-3136.637156 -4932.413532 -332.000000
-3135.181063 -4933.784588 -332.000000
-3133.724970 -4935.155644 -332.000000
-3132.268877 -4936.526699 -332.000000
-3130.812785 -4937.897755 -332.000000
-3129.356692 -4939.268811 -332.000000
-3127.900599 -4940.639867 -332.000000
-3126.444507 -4942.010923 -332.000000
-3124.988414 -4943.381979 -332.000000
-3123.532321 -4944.753034 -332.000000
-3122.076229 -4946.124090 -332.000000
-3120.620136 -4947.495146 -332.000000
-3119.164043 -4948.866202 -332.000000
-3117.707951 -4950.237258 -332.000000
-3116.251858 -4951.608314 -332.000000
-3114.795765 -4952.979369 -332.000000
-3113.339673 -4954.350425 -332.000000
-3111.883580 -4955.721481 -332.000000
-3110.427487 -4957.092537 -332.000000
-3108.971394 -4958.463593 -332.000000
-3107.515302 -4959.834648 -332.000000
-3106.059209 -4961.205704 -332.000000
-3104.603116 -4962.576760 -332.000000
-3103.147024 -4963.947816 -332.000000
-3101.690931 -4965.318872 -332.000000
-3100.234838 -4966.689928 -332.000000
-3098.778746 -4968.060983 -332.000000
-3097.322653 -4969.432039 -332.000000
-3095.866560 -4970.803095 -332.000000
-3094.410468 -4972.174151 -332.000000
-3092.954375 -4973.545207 -332.000000
-3091.498282 -4974.916263 -332.000000
-3090.042190 -4976.287318 -332.000000
-3088.586097 -4977.658374 -332.000000
-3087.130004 -4979.029430 -332.000000
-3085.673911 -4980.400486 -332.000000
-3084.217819 -4981.771542 -332.000000
-3082.761726 -4983.142598 -332.000000
-3081.305633 -4984.513653 -332.000000
-3079.849541 -4985.884709 -332.000000
-3078.393448 -4987.255765 -332.000000
-3076.937355 -4988.626821 -332.000000
-3075.481263 -4989.997877 -332.000000
-3074.025170 -4991.368933 -332.000000
-3072.569077 -4992.739988 -332.000000
-3071.112985 -4994.111044 -332.000000
-3069.656892 -4995.482100 -332.000000
-3068.200799 -4996.853156 -332.000000
-3066.744707 -4998.224212 -332.000000
-3065.288614 -4999.595267 -332.000000
-3063.832521 -5000.966323 -332.000000
-3062.376428 -5002.337379 -332.000000
-3060.920336 -5003.708435 -332.000000
-3059.464243 -5005.079491 -332.000000
-3058.008150 -5006.450547 -332.000000
-3056.552058 -5007.821602 -332.000000
-3055.095965 -5009.192658 -332.000000
-3053.639872 -5010.563714 -332.000000
-3052.183780 -5011.934770 -332.000000
-3050.727687 -5013.305826 -332.000000
-3049.271594 -5014.676882 -332.000000
-3047.815502 -5016.047937 -332.000000
-3046.359409 -5017.418993 -332.000000
-3044.903316 -5018.790049 -332.000000
-3043.447223 -5020.161105 -332.000000
-3041.991131 -5021.532161 -332.000000
-3040.535038 -5022.903217 -332.000000
-3039.078945 -5024.274272 -332.000000
-3037.622853 -5025.645328 -332.000000
-3036.166760 -5027.016384 -332.000000
-3034.710667 -5028.387440 -332.000000
-3033.254575 -5029.758496 -332.000000
-3031.798482 -5031.129552 -332.000000
-3030.342389 -5032.500607 -332.000000
-3028.886297 -5033.871663 -332.000000
-3027.430204 -5035.242719 -332.000000
-3025.974111 -5036.613775 -332.000000
-3024.518019 -5037.984831 -332.000000
-3023.061926 -5039.355887 -332.000000
-3021.605833 -5040.726942 -332.000000
-3020.149740 -5042.097998 -332.000000
-3018.693648 -5043.469054 -332.000000
-3017.237555 -5044.840110 -332.000000
-3015.781462 -5046.211166 -332.000000
-3014.325370 -5047.582221 -332.000000
-3012.869277 -5048.953277 -332.000000
-3011.413184 -5050.324333 -332.000000
-3009.957092 -5051.695389 -332.000000
-3008.500999 -5053.066445 -332.000000
-3007.044906 -5054.437501 -332.000000
-3005.588814 -5055.808556 -332.000000
-3004.132721 -5057.179612 -332.000000
-3002.676628 -5058.550668 -332.000000
-3001.220536 -5059.921724 -332.000000
-2999.764443 -5061.292780 -332.000000
-2998.308350 -5062.663836 -332.000000
-2996.852257 -5064.034891 -332.000000
-2995.396165 -5065.405947 -332.000000
-2993.940072 -5066.777003 -332.000000
-2992.483979 -5068.148059 -332.000000
-2991.027887 -5069.519115 -332.000000
-2989.571794 -5070.890171 -332.000000
-2988.115701 -5072.261226 -332.000000
-2986.659609 -5073.632282 -332.000000
-2985.203516 -5075.003338 -332.000000
-2983.747423 -5076.374394 -332.000000
-2982.291331 -5077.745450 -332.000000
-2980.835238 -5079.116506 -332.000000
-2979.379145 -5080.487561 -332.000000
-2977.923053 -5081.858617 -332.000000
-2976.466960 -5083.229673 -332.000000
-2975.010867 -5084.600729 -332.000000
-2973.554774 -5085.971785 -332.000000
-2972.098682 -5087.342841 -332.000000
-2970.642589 -5088.713896 -332.000000
-2969.186496 -5090.084952 -332.000000
-2967.730404 -5091.456008 -332.000000
-2966.274311 -5092.827064 -332.000000
-2964.818218 -5094.198120 -332.000000
-2963.362126 -5095.569175 -332.000000
-2961.906033 -5096.940231 -332.000000
-2960.449940 -5098.311287 -332.000000
-2958.993848 -5099.682343 -332.000000
-2957.537755 -5101.053399 -332.000000
