-472.065482 -981.028324 80.000000
-471.356624 -982.898489 80.000000
-470.647765 -984.768655 80.000000
-469.938907 -986.638821 80.000000
-469.230049 -988.508987 80.000000
-468.521191 -990.379152 80.000000
-467.812333 -992.249318 80.000000
-467.103474 -994.119484 80.000000
-466.394616 -995.989650 80.000000
-465.685758 -997.859816 80.000000
-464.976900 -999.729981 80.000000
-464.268042 -1001.600147 80.000000
-463.559184 -1003.470313 80.000000
-462.850325 -1005.340479 80.000000
-462.141467 -1007.210645 80.000000
-461.432609 -1009.080810 80.000000
-460.723751 -1010.950976 80.000000
-460.014893 -1012.821142 80.000000
-459.306034 -1014.691308 80.000000
-458.597176 -1016.561474 80.000000
-457.888318 -1018.431639 80.000000
-457.179460 -1020.301805 80.000000
-456.470602 -1022.171971 80.000000
-455.761744 -1024.042137 80.000000
-455.052885 -1025.912302 80.000000
-454.344027 -1027.782468 80.000000
-453.635169 -1029.652634 80.000000
-452.926311 -1031.522800 80.000000
-452.217453 -1033.392966 80.000000
-451.508595 -1035.263131 80.000000
-450.799736 -1037.133297 80.000000
-450.090878 -1039.003463 80.000000
-449.382020 -1040.873629 80.000000
-448.673162 -1042.743795 80.000000
-447.964304 -1044.613960 80.000000
-447.255445 -1046.484126 80.000000
-446.546587 -1048.354292 80.000000
-445.837729 -1050.224458 80.000000
-445.128871 -1052.094624 80.000000
-444.420013 -1053.964789 80.000000
-443.648597 -1056.000000 80.000000
-443.838384 -1057.948794 80.407656
-444.028171 -1059.897588 80.815312
-444.217958 -1061.846382 81.222968
-444.407745 -1063.795175 81.630623
-444.597533 -1065.743969 82.038279
-444.787320 -1067.692763 82.445935
-444.977107 -1069.641557 82.853591
-445.166894 -1071.590351 83.261247
-445.356681 -1073.539145 83.668903
-445.546469 -1075.487939 84.076559
-445.736256 -1077.436733 84.484214
-445.926043 -1079.385526 84.891870
-446.115830 -1081.334320 85.299526
-446.305617 -1083.283114 85.707182
-446.495404 -1085.231908 86.114838
-446.685192 -1087.180702 86.522494
-446.874979 -1089.129496 86.930150
-447.064766 -1091.078290 87.337805
-447.254553 -1093.027083 87.745461
-447.444340 -1094.975877 88.153117
-447.634127 -1096.924671 88.560773
-447.823915 -1098.873465 88.968429
-448.013702 -1100.822259 89.376085
-448.203489 -1102.771053 89.783741
-448.393276 -1104.719847 90.191396
-448.583063 -1106.668640 90.599052
-448.772851 -1108.617434 91.006708
-448.962638 -1110.566228 91.414364
-449.152425 -1112.515022 91.822020
-449.342212 -1114.463816 92.229676
-449.531999 -1116.412610 92.637332
-449.721786 -1118.361404 93.044988
-449.911574 -1120.310198 93.452643
-450.101361 -1122.258991 93.860299
-450.291148 -1124.207785 94.267955
-450.480935 -1126.156579 94.675611
-450.670722 -1128.105373 95.083267
-450.860509 -1130.054167 95.490923
-451.050297 -1132.002961 95.898579
-451.240084 -1133.951755 96.306234
-451.429871 -1135.900548 96.713890
-451.619658 -1137.849342 97.121546
-451.809445 -1139.798136 97.529202
-451.999233 -1141.746930 97.936858
-452.189020 -1143.695724 98.344514
-452.378807 -1145.644518 98.752170
-452.568594 -1147.593312 99.159825
-452.758381 -1149.542106 99.567481
-452.948168 -1151.490899 99.975137
-453.137956 -1153.439693 100.382793
-453.327743 -1155.388487 100.790449
-453.517530 -1157.337281 101.198105
-453.707317 -1159.286075 101.605761
-453.897104 -1161.234869 102.013416
-454.086891 -1163.183663 102.421072
-454.276679 -1165.132456 102.828728
-454.466466 -1167.081250 103.236384
-454.656253 -1169.030044 103.644040
-454.846040 -1170.978838 104.051696
-455.035827 -1172.927632 104.459352
-455.225615 -1174.876426 104.867007
-455.415402 -1176.825220 105.274663
-455.605189 -1178.774013 105.682319
-455.794976 -1180.722807 106.089975
-455.984763 -1182.671601 106.497631
-456.174550 -1184.620395 106.905287
-456.364338 -1186.569189 107.312943
-456.554125 -1188.517983 107.720598
-456.743912 -1190.466777 108.128254
-456.933699 -1192.415571 108.535910
-457.123486 -1194.364364 108.943566
-457.313273 -1196.313158 109.351222
-457.503061 -1198.261952 109.758878
-457.692848 -1200.210746 110.166534
-457.882635 -1202.159540 110.574189
-458.072422 -1204.108334 110.981845
-458.262209 -1206.057128 111.389501
-458.451997 -1208.005921 111.797157
-458.641784 -1209.954715 112.204813
-458.831571 -1211.903509 112.612469
-459.021358 -1213.852303 113.020125
-459.211145 -1215.801097 113.427780
-459.400932 -1217.749891 113.835436
-459.590720 -1219.698685 114.243092
-459.780507 -1221.647479 114.650748
-459.970294 -1223.596272 115.058404
-460.160081 -1225.545066 115.466060
-460.349868 -1227.493860 115.873716
-460.539655 -1229.442654 116.281371
-460.729443 -1231.391448 116.689027
-460.919230 -1233.340242 117.096683
-461.109017 -1235.289036 117.504339
-461.298804 -1237.237829 117.911995
-461.488591 -1239.186623 118.319651
-461.678379 -1241.135417 118.727307
-461.868166 -1243.084211 119.134963
-462.057953 -1245.033005 119.542618
-462.247740 -1246.981799 119.950274
-462.437527 -1248.930593 120.357930
-462.627314 -1250.879386 120.765586
-462.817102 -1252.828180 121.173242
-463.006889 -1254.776974 121.580898
-463.196676 -1256.725768 121.988554
-463.386463 -1258.674562 122.396209
-463.576250 -1260.623356 122.803865
-463.766037 -1262.572150 123.211521
-463.955825 -1264.520944 123.619177
-464.145612 -1266.469737 124.026833
-464.335399 -1268.418531 124.434489
-464.525186 -1270.367325 124.842145
-464.714973 -1272.316119 125.249800
-464.904761 -1274.264913 125.657456
-465.094548 -1276.213707 126.065112
-465.284335 -1278.162501 126.472768
-465.474122 -1280.111294 126.880424
-465.663909 -1282.060088 127.288080
-465.853696 -1284.008882 127.695736
-466.043484 -1285.957676 128.103391
-466.233271 -1287.906470 128.511047
-466.423058 -1289.855264 128.918703
-466.612845 -1291.804058 129.326359
-466.802632 -1293.752852 129.734015
-466.992419 -1295.701645 130.141671
-467.182207 -1297.650439 130.549327
-467.371994 -1299.599233 130.956982
-467.561781 -1301.548027 131.364638
-467.751568 -1303.496821 131.772294
-467.941355 -1305.445615 132.179950
-468.131142 -1307.394409 132.587606
-468.320930 -1309.343202 132.995262
-468.510717 -1311.291996 133.402918
-468.700504 -1313.240790 133.810573
-468.890291 -1315.189584 134.218229
-469.080078 -1317.138378 134.625885
-469.269866 -1319.087172 135.033541
-469.459653 -1321.035966 135.441197
-469.649440 -1322.984759 135.848853
-469.839227 -1324.933553 136.256509
-470.029014 -1326.882347 136.664164
-470.218801 -1328.831141 137.071820
-470.408589 -1330.779935 137.479476
-470.598376 -1332.728729 137.887132
-470.788163 -1334.677523 138.294788
-470.977950 -1336.626317 138.702444
-471.167737 -1338.575110 139.110100
-471.357524 -1340.523904 139.517755
-471.547312 -1342.472698 139.925411
-471.737099 -1344.421492 140.333067
-471.926886 -1346.370286 140.740723
-472.116673 -1348.319080 141.148379
-472.306460 -1350.267874 141.556035
-472.496248 -1352.216667 141.963691
-472.686035 -1354.165461 142.371347
-472.875822 -1356.114255 142.779002
-473.065609 -1358.063049 143.186658
-473.255396 -1360.011843 143.594314
-473.445183 -1361.960637 144.001970
-473.634971 -1363.909431 144.409626
-473.824758 -1365.858225 144.817282
-474.014545 -1367.807018 145.224938
-474.204332 -1369.755812 145.632593
-474.394119 -1371.704606 146.040249
-474.583906 -1373.653400 146.447905
-474.773694 -1375.602194 146.855561
-474.963481 -1377.550988 147.263217
-475.153268 -1379.499782 147.670873
-475.343055 -1381.448575 148.078529
-475.532842 -1383.397369 148.486184
-475.722630 -1385.346163 148.893840
-475.912417 -1387.294957 149.301496
-476.102204 -1389.243751 149.709152
-476.291991 -1391.192545 150.116808
-476.481778 -1393.141339 150.524464
-476.671565 -1395.090132 150.932120
-476.861353 -1397.038926 151.339775
-477.051140 -1398.987720 151.747431
-477.240927 -1400.936514 152.155087
-477.430714 -1402.885308 152.562743
-477.620501 -1404.834102 152.970399
-477.810288 -1406.782896 153.378055
-478.000076 -1408.731690 153.785711
-478.189863 -1410.680483 154.193366
-478.379650 -1412.629277 154.601022
-478.569437 -1414.578071 155.008678
-478.759224 -1416.526865 155.416334
-478.949012 -1418.475659 155.823990
-479.138799 -1420.424453 156.231646
-479.328586 -1422.373247 156.639302
-479.518373 -1424.322040 157.046957
-479.708160 -1426.270834 157.454613
-479.897947 -1428.219628 157.862269
-480.087735 -1430.168422 158.269925
-480.277522 -1432.117216 158.677581
-480.467309 -1434.066010 159.085237
-480.657096 -1436.014804 159.492893
-480.846883 -1437.963598 159.900548
-481.036670 -1439.912391 160.308204
-481.226458 -1441.861185 160.715860
-481.416245 -1443.809979 161.123516
-481.606032 -1445.758773 161.531172
-481.795819 -1447.707567 161.938828
-481.985606 -1449.656361 162.346484
-482.175394 -1451.605155 162.754139
-482.365181 -1453.553948 163.161795
-482.554968 -1455.502742 163.569451
-482.744755 -1457.451536 163.977107
-482.934542 -1459.400330 164.384763
-483.124329 -1461.349124 164.792419
-483.314117 -1463.297918 165.200075
-483.503904 -1465.246712 165.607730
-483.693691 -1467.195505 166.015386
-483.883478 -1469.144299 166.423042
-484.073265 -1471.093093 166.830698
-484.263052 -1473.041887 167.238354
-484.452840 -1474.990681 167.646010
-484.642627 -1476.939475 168.053666
-484.832414 -1478.888269 168.461322
-485.022201 -1480.837063 168.868977
-485.211988 -1482.785856 169.276633
-485.401776 -1484.734650 169.684289
-485.591563 -1486.683444 170.091945
-485.781350 -1488.632238 170.499601
-485.971137 -1490.581032 170.907257
-486.160924 -1492.529826 171.314913
-486.350711 -1494.478620 171.722568
-486.540499 -1496.427413 172.130224
-486.730286 -1498.376207 172.537880
-486.920073 -1500.325001 172.945536
-487.109860 -1502.273795 173.353192
-487.299647 -1504.222589 173.760848
-487.489434 -1506.171383 174.168504
-487.679222 -1508.120177 174.576159
-487.869009 -1510.068971 174.983815
-488.058796 -1512.017764 175.391471
-488.248583 -1513.966558 175.799127
-488.438370 -1515.915352 176.206783
-488.628158 -1517.864146 176.614439
-488.817945 -1519.812940 177.022095
-489.007732 -1521.761734 177.429750
-489.197519 -1523.710528 177.837406
-489.387306 -1525.659321 178.245062
-489.577093 -1527.608115 178.652718
-489.766881 -1529.556909 179.060374
-489.956668 -1531.505703 179.468030
-490.146455 -1533.454497 179.875686
-490.336242 -1535.403291 180.283341
-490.526029 -1537.352085 180.690997
-490.715816 -1539.300878 181.098653
-490.905604 -1541.249672 181.506309
-491.095391 -1543.198466 181.913965
-491.285178 -1545.147260 182.321621
-491.474965 -1547.096054 182.729277
-491.664752 -1549.044848 183.136932
-491.854540 -1550.993642 183.544588
-492.044327 -1552.942436 183.952244
-492.234114 -1554.891229 184.359900
-492.423901 -1556.840023 184.767556
-492.613688 -1558.788817 185.175212
-492.803475 -1560.737611 185.582868
-492.993263 -1562.686405 185.990523
-493.183050 -1564.635199 186.398179
-493.372837 -1566.583993 186.805835
-493.562624 -1568.532786 187.213491
-493.752411 -1570.481580 187.621147
-493.942198 -1572.430374 188.028803
-494.131986 -1574.379168 188.436459
-494.321773 -1576.327962 188.844114
-494.511560 -1578.276756 189.251770
-494.701347 -1580.225550 189.659426
-494.891134 -1582.174344 190.067082
-495.080922 -1584.123137 190.474738
-495.270709 -1586.071931 190.882394
-495.460496 -1588.020725 191.290050
-495.650283 -1589.969519 191.697706
-495.840070 -1591.918313 192.105361
-496.029857 -1593.867107 192.513017
-496.219645 -1595.815901 192.920673
-496.409432 -1597.764694 193.328329
-496.599219 -1599.713488 193.735985
-496.789006 -1601.662282 194.143641
-496.978793 -1603.611076 194.551297
-497.168580 -1605.559870 194.958952
-497.358368 -1607.508664 195.366608
-497.548155 -1609.457458 195.774264
-497.737942 -1611.406252 196.181920
-497.927729 -1613.355045 196.589576
-498.117516 -1615.303839 196.997232
-498.307304 -1617.252633 197.404888
-498.497091 -1619.201427 197.812543
-498.686878 -1621.150221 198.220199
-498.876665 -1623.099015 198.627855
-499.066452 -1625.047809 199.035511
-499.256239 -1626.996602 199.443167
-499.446027 -1628.945396 199.850823
-499.635814 -1630.894190 200.258479
-499.825601 -1632.842984 200.666134
-500.015388 -1634.791778 201.073790
-500.205175 -1636.740572 201.481446
-500.394962 -1638.689366 201.889102
-500.584750 -1640.638159 202.296758
-500.774537 -1642.586953 202.704414
-500.964324 -1644.535747 203.112070
-501.154111 -1646.484541 203.519725
-501.343898 -1648.433335 203.927381
-501.533686 -1650.382129 204.335037
-501.723473 -1652.330923 204.742693
-501.913260 -1654.279717 205.150349
-502.103047 -1656.228510 205.558005
-502.292834 -1658.177304 205.965661
-502.482621 -1660.126098 206.373316
-502.672409 -1662.074892 206.780972
-502.862196 -1664.023686 207.188628
-503.051983 -1665.972480 207.596284
-503.241770 -1667.921274 208.003940
-503.431557 -1669.870067 208.411596
-503.621344 -1671.818861 208.819252
-503.811132 -1673.767655 209.226907
-504.000919 -1675.716449 209.634563
-504.190706 -1677.665243 210.042219
-504.380493 -1679.614037 210.449875
-504.570280 -1681.562831 210.857531
-504.760068 -1683.511625 211.265187
-504.949855 -1685.460418 211.672843
-505.139642 -1687.409212 212.080498
-505.329429 -1689.358006 212.488154
-505.519216 -1691.306800 212.895810
-505.709003 -1693.255594 213.303466
-505.898791 -1695.204388 213.711122
-506.088578 -1697.153182 214.118778
-506.278365 -1699.101975 214.526434
-506.468152 -1701.050769 214.934089
-506.657939 -1702.999563 215.341745
-506.847726 -1704.948357 215.749401
-507.037514 -1706.897151 216.157057
-507.227301 -1708.845945 216.564713
-507.417088 -1710.794739 216.972369
-507.606875 -1712.743532 217.380025
-507.796662 -1714.692326 217.787681
-507.986450 -1716.641120 218.195336
-508.176237 -1718.589914 218.602992
-508.366024 -1720.538708 219.010648
-508.555811 -1722.487502 219.418304
-508.745598 -1724.436296 219.825960
-508.935385 -1726.385090 220.233616
-509.125173 -1728.333883 220.641272
-509.314960 -1730.282677 221.048927
-509.504747 -1732.231471 221.456583
-509.694534 -1734.180265 221.864239
-509.884321 -1736.129059 222.271895
-510.074108 -1738.077853 222.679551
-510.263896 -1740.026647 223.087207
-510.453683 -1741.975440 223.494863
-510.643470 -1743.924234 223.902518
-510.833257 -1745.873028 224.310174
-511.023044 -1747.821822 224.717830
-511.212832 -1749.770616 225.125486
-511.402619 -1751.719410 225.533142
-511.592406 -1753.668204 225.940798
-511.782193 -1755.616998 226.348454
-511.971980 -1757.565791 226.756109
-512.161767 -1759.514585 227.163765
-512.351555 -1761.463379 227.571421
-512.541342 -1763.412173 227.979077
-512.731129 -1765.360967 228.386733
-512.920916 -1767.309761 228.794389
-513.110703 -1769.258555 229.202045
-513.300490 -1771.207348 229.609700
-513.490278 -1773.156142 230.017356
-513.680065 -1775.104936 230.425012
-513.869852 -1777.053730 230.832668
-514.059639 -1779.002524 231.240324
-514.249426 -1780.951318 231.647980
-514.439214 -1782.900112 232.055636
-514.629001 -1784.848905 232.463291
-514.818788 -1786.797699 232.870947
-515.008575 -1788.746493 233.278603
-515.198362 -1790.695287 233.686259
-515.388149 -1792.644081 234.093915
-515.577937 -1794.592875 234.501571
-515.767724 -1796.541669 234.909227
-515.957511 -1798.490463 235.316882
-516.147298 -1800.439256 235.724538
-516.337085 -1802.388050 236.132194
-516.526872 -1804.336844 236.539850
-516.716660 -1806.285638 236.947506
-516.906447 -1808.234432 237.355162
-517.096234 -1810.183226 237.762818
-517.286021 -1812.132020 238.170473
-517.475808 -1814.080813 238.578129
-517.665596 -1816.029607 238.985785
-517.855383 -1817.978401 239.393441
-518.045170 -1819.927195 239.801097
-518.234957 -1821.875989 240.208753
-518.424744 -1823.824783 240.616409
-518.614531 -1825.773577 241.024065
-518.804319 -1827.722371 241.431720
-518.994106 -1829.671164 241.839376
-519.183893 -1831.619958 242.247032
-519.373680 -1833.568752 242.654688
-519.563467 -1835.517546 243.062344
-519.753254 -1837.466340 243.470000
-520.000000 -1840.000000 244.000000
-520.000000 -1842.000000 244.000000
-520.000000 -1844.000000 244.000000
-520.000000 -1846.000000 244.000000
-520.000000 -1848.000000 244.000000
-520.000000 -1850.000000 244.000000
-520.000000 -1852.000000 244.000000
-520.000000 -1854.000000 244.000000
-520.000000 -1856.000000 244.000000
-520.000000 -1858.000000 244.000000
-520.000000 -1860.000000 244.000000
-520.000000 -1862.000000 244.000000
-520.000000 -1864.000000 244.000000
-520.000000 -1866.000000 244.000000
-520.000000 -1868.000000 244.000000
-520.000000 -1870.000000 244.000000
-520.000000 -1872.000000 244.000000
-520.000000 -1874.000000 244.000000
-520.000000 -1876.000000 244.000000
-520.000000 -1878.000000 244.000000
-520.000000 -1880.000000 244.000000
-520.000000 -1882.000000 244.000000
-520.000000 -1884.000000 244.000000
-520.000000 -1886.000000 244.000000
-520.000000 -1888.000000 244.000000
-520.000000 -1890.000000 244.000000
-520.000000 -1892.000000 244.000000
-520.000000 -1894.000000 244.000000
-520.000000 -1896.000000 244.000000
-520.000000 -1898.000000 244.000000
-520.000000 -1900.000000 244.000000
-520.000000 -1902.000000 244.000000
-520.000000 -1904.000000 244.000000
-520.000000 -1906.000000 244.000000
-520.000000 -1908.000000 244.000000
-520.000000 -1910.000000 244.000000
-520.000000 -1912.000000 244.000000
-520.000000 -1914.000000 244.000000
-520.000000 -1916.000000 244.000000
-520.000000 -1918.000000 244.000000
-520.000000 -1920.000000 244.000000
-520.000000 -1922.000000 244.000000
-520.000000 -1924.000000 244.000000
-520.000000 -1926.000000 244.000000
-520.000000 -1928.000000 244.000000
-520.000000 -1930.000000 244.000000
-520.000000 -1932.000000 244.000000
-520.000000 -1934.000000 244.000000
-520.000000 -1936.000000 244.000000
-520.000000 -1938.000000 244.000000
-520.000000 -1940.000000 244.000000
-520.000000 -1942.000000 244.000000
-520.000000 -1944.000000 244.000000
-520.000000 -1946.000000 244.000000
-520.000000 -1948.000000 244.000000
-520.000000 -1950.000000 244.000000
-520.000000 -1952.000000 244.000000
-520.000000 -1954.000000 244.000000
-520.000000 -1956.000000 244.000000
-520.000000 -1958.000000 244.000000
-520.000000 -1960.000000 244.000000
-520.000000 -1962.000000 244.000000
-520.000000 -1964.000000 244.000000
-520.000000 -1966.000000 244.000000
-520.000000 -1968.000000 244.000000
-520.000000 -1970.000000 244.000000
-520.000000 -1972.000000 244.000000
-520.000000 -1974.000000 244.000000
-520.000000 -1976.000000 244.000000
-520.000000 -1978.000000 244.000000
-520.000000 -1980.000000 244.000000
-520.000000 -1982.000000 244.000000
-520.000000 -1984.000000 244.000000
-520.000000 -1986.000000 244.000000
-520.000000 -1988.000000 244.000000
-520.000000 -1990.000000 244.000000
-520.000000 -1992.000000 244.000000
-520.000000 -1994.000000 244.000000
-520.000000 -1996.000000 244.000000
-520.000000 -1998.000000 244.000000
-520.000000 -2000.000000 244.000000
-520.000000 -2002.000000 244.000000
-520.000000 -2004.000000 244.000000
-520.000000 -2006.000000 244.000000
-520.000000 -2008.000000 244.000000
-520.000000 -2010.000000 244.000000
-520.000000 -2012.000000 244.000000
-520.000000 -2014.000000 244.000000
-520.000000 -2016.000000 244.000000
-520.000000 -2018.000000 244.000000
-520.000000 -2020.000000 244.000000
-520.000000 -2022.000000 244.000000
-520.000000 -2024.000000 244.000000
-520.000000 -2026.000000 244.000000
-520.000000 -2028.000000 244.000000
-520.000000 -2030.000000 244.000000
-520.000000 -2032.000000 244.000000
-520.000000 -2034.000000 244.000000
-520.000000 -2036.000000 244.000000
-520.000000 -2038.000000 244.000000
-520.000000 -2040.000000 244.000000
-520.000000 -2042.000000 244.000000
-520.000000 -2044.000000 244.000000
-520.000000 -2046.000000 244.000000
-520.000000 -2048.000000 244.000000
-520.000000 -2050.000000 244.000000
-520.000000 -2052.000000 244.000000
-520.000000 -2054.000000 244.000000
-520.000000 -2056.000000 244.000000
-520.000000 -2058.000000 244.000000
-520.000000 -2060.000000 244.000000
-520.000000 -2062.000000 244.000000
-520.000000 -2064.000000 244.000000
-520.000000 -2066.000000 244.000000
-520.000000 -2068.000000 244.000000
-520.000000 -2070.000000 244.000000
-520.000000 -2072.000000 244.000000
-520.000000 -2074.000000 244.000000
-520.000000 -2076.000000 244.000000
-520.000000 -2078.000000 244.000000
-520.000000 -2080.000000 244.000000
-520.000000 -2082.000000 244.000000
-520.000000 -2084.000000 244.000000
-520.000000 -2086.000000 244.000000
-520.000000 -2088.000000 244.000000
-520.000000 -2090.000000 244.000000
-520.000000 -2092.000000 244.000000
-520.000000 -2094.000000 244.000000
-520.000000 -2096.000000 244.000000
-520.000000 -2098.000000 244.000000
-520.000000 -2100.000000 244.000000
-520.000000 -2102.000000 244.000000
-520.000000 -2104.000000 244.000000
-520.000000 -2106.000000 244.000000
-520.000000 -2108.000000 244.000000
-520.000000 -2110.000000 244.000000
-520.000000 -2112.000000 244.000000
-520.000000 -2114.000000 244.000000
-520.000000 -2116.000000 244.000000
-520.000000 -2118.000000 244.000000
-520.000000 -2120.000000 244.000000
-520.000000 -2122.000000 244.000000
-520.000000 -2124.000000 244.000000
-520.000000 -2126.000000 244.000000
-520.000000 -2128.000000 244.000000
-520.000000 -2130.000000 244.000000
-520.000000 -2132.000000 244.000000
-520.000000 -2134.000000 244.000000
-520.000000 -2136.000000 244.000000
-520.000000 -2138.000000 244.000000
-520.000000 -2140.000000 244.000000
-520.000000 -2142.000000 244.000000
-520.000000 -2144.000000 244.000000
-520.000000 -2146.000000 244.000000
-520.000000 -2148.000000 244.000000
-520.000000 -2150.000000 244.000000
-520.000000 -2152.000000 244.000000
-520.000000 -2154.000000 244.000000
-520.000000 -2156.000000 244.000000
-520.000000 -2160.000000 244.000000
-521.693130 -2160.638743 243.148343
-523.386260 -2161.277485 242.296686
-525.079389 -2161.916228 241.445029
-526.772519 -2162.554971 240.593373
-528.465649 -2163.193713 239.741716
-530.158779 -2163.832456 238.890059
-531.851908 -2164.471199 238.038402
-533.545038 -2165.109941 237.186745
-535.238168 -2165.748684 236.335088
-536.931298 -2166.387427 235.483431
-538.624427 -2167.026169 234.631774
-540.317557 -2167.664912 233.780118
-542.010687 -2168.303654 232.928461
-543.703817 -2168.942397 232.076804
-545.396947 -2169.581140 231.225147
-547.090076 -2170.219882 230.373490
-548.783206 -2170.858625 229.521833
-550.476336 -2171.497368 228.670176
-552.169466 -2172.136110 227.818520
-553.862595 -2172.774853 226.966863
-555.555725 -2173.413596 226.115206
-557.248855 -2174.052338 225.263549
-558.941985 -2174.691081 224.411892
-560.635114 -2175.329824 223.560235
-562.328244 -2175.968566 222.708578
-564.021374 -2176.607309 221.856921
-565.714504 -2177.246052 221.005265
-567.407633 -2177.884794 220.153608
-569.100763 -2178.523537 219.301951
-570.793893 -2179.162280 218.450294
-572.487023 -2179.801022 217.598637
-574.180153 -2180.439765 216.746980
-575.873282 -2181.078507 215.895323
-577.566412 -2181.717250 215.043667
-579.259542 -2182.355993 214.192010
-580.952672 -2182.994735 213.340353
-582.645801 -2183.633478 212.488696
-584.338931 -2184.272221 211.637039
-586.032061 -2184.910963 210.785382
-587.725191 -2185.549706 209.933725
-589.418320 -2186.188449 209.082068
-591.111450 -2186.827191 208.230412
-592.804580 -2187.465934 207.378755
-594.497710 -2188.104677 206.527098
-596.190840 -2188.743419 205.675441
-597.883969 -2189.382162 204.823784
-599.577099 -2190.020905 203.972127
-601.270229 -2190.659647 203.120470
-602.963359 -2191.298390 202.268814
-604.656488 -2191.937133 201.417157
-606.349618 -2192.575875 200.565500
-608.042748 -2193.214618 199.713843
-609.735878 -2193.853360 198.862186
-611.429007 -2194.492103 198.010529
-613.122137 -2195.130846 197.158872
-614.815267 -2195.769588 196.307215
-616.508397 -2196.408331 195.455559
-618.201526 -2197.047074 194.603902
-619.894656 -2197.685816 193.752245
-621.587786 -2198.324559 192.900588
-623.280916 -2198.963302 192.048931
-624.974046 -2199.602044 191.197274
-626.667175 -2200.240787 190.345617
-628.360305 -2200.879530 189.493961
-630.053435 -2201.518272 188.642304
-631.746565 -2202.157015 187.790647
-633.439694 -2202.795758 186.938990
-635.132824 -2203.434500 186.087333
-636.825954 -2204.073243 185.235676
-638.519084 -2204.711986 184.384019
-640.212213 -2205.350728 183.532362
-641.905343 -2205.989471 182.680706
-643.598473 -2206.628213 181.829049
-645.291603 -2207.266956 180.977392
-646.984733 -2207.905699 180.125735
-648.677862 -2208.544441 179.274078
-650.370992 -2209.183184 178.422421
-652.064122 -2209.821927 177.570764
-653.757252 -2210.460669 176.719108
-655.450381 -2211.099412 175.867451
-657.143511 -2211.738155 175.015794
-658.836641 -2212.376897 174.164137
-660.529771 -2213.015640 173.312480
-662.222900 -2213.654383 172.460823
-663.916030 -2214.293125 171.609166
-665.609160 -2214.931868 170.757509
-667.302290 -2215.570611 169.905853
-668.995419 -2216.209353 169.054196
-670.688549 -2216.848096 168.202539
-672.381679 -2217.486839 167.350882
-674.074809 -2218.125581 166.499225
-675.767939 -2218.764324 165.647568
-677.461068 -2219.403066 164.795911
-679.154198 -2220.041809 163.944255
-680.847328 -2220.680552 163.092598
-682.540458 -2221.319294 162.240941
-684.233587 -2221.958037 161.389284
-685.926717 -2222.596780 160.537627
-687.619847 -2223.235522 159.685970
-689.312977 -2223.874265 158.834313
-691.006106 -2224.513008 157.982656
-692.699236 -2225.151750 157.131000
-694.392366 -2225.790493 156.279343
-696.085496 -2226.429236 155.427686
-697.778626 -2227.067978 154.576029
-699.471755 -2227.706721 153.724372
-701.164885 -2228.345464 152.872715
-702.858015 -2228.984206 152.021058
-704.551145 -2229.622949 151.169402
-706.244274 -2230.261692 150.317745
-707.937404 -2230.900434 149.466088
-709.630534 -2231.539177 148.614431
-711.323664 -2232.177919 147.762774
-713.016793 -2232.816662 146.911117
-714.709923 -2233.455405 146.059460
-716.403053 -2234.094147 145.207803
-718.096183 -2234.732890 144.356147
-719.789313 -2235.371633 143.504490
-721.482442 -2236.010375 142.652833
-723.175572 -2236.649118 141.801176
-724.868702 -2237.287861 140.949519
-726.561832 -2237.926603 140.097862
-728.254961 -2238.565346 139.246205
-729.948091 -2239.204089 138.394549
-731.641221 -2239.842831 137.542892
-733.334351 -2240.481574 136.691235
-735.027480 -2241.120317 135.839578
-736.720610 -2241.759059 134.987921
-738.413740 -2242.397802 134.136264
-740.106870 -2243.036545 133.284607
-741.799999 -2243.675287 132.432950
-743.493129 -2244.314030 131.581294
-745.186259 -2244.952772 130.729637
-746.879389 -2245.591515 129.877980
-748.572519 -2246.230258 129.026323
-750.265648 -2246.869000 128.174666
-751.958778 -2247.507743 127.323009
-753.651908 -2248.146486 126.471352
-755.345038 -2248.785228 125.619695
-757.038167 -2249.423971 124.768039
-758.731297 -2250.062714 123.916382
-760.424427 -2250.701456 123.064725
-762.117557 -2251.340199 122.213068
-763.810686 -2251.978942 121.361411
-765.503816 -2252.617684 120.509754
-767.196946 -2253.256427 119.658097
-768.890076 -2253.895170 118.806441
-770.583206 -2254.533912 117.954784
-772.276335 -2255.172655 117.103127
-773.969465 -2255.811398 116.251470
-775.662595 -2256.450140 115.399813
-777.355725 -2257.088883 114.548156
-779.048854 -2257.727625 113.696499
-780.741984 -2258.366368 112.844842
-782.435114 -2259.005111 111.993186
-784.128244 -2259.643853 111.141529
-785.821373 -2260.282596 110.289872
-787.514503 -2260.921339 109.438215
-789.207633 -2261.560081 108.586558
-790.900763 -2262.198824 107.734901
-792.593892 -2262.837567 106.883244
-794.287022 -2263.476309 106.031588
-795.980152 -2264.115052 105.179931
-797.673282 -2264.753795 104.328274
-799.366412 -2265.392537 103.476617
-801.059541 -2266.031280 102.624960
-802.752671 -2266.670023 101.773303
-804.445801 -2267.308765 100.921646
-806.138931 -2267.947508 100.069989
-807.832060 -2268.586251 99.218333
-809.525190 -2269.224993 98.366676
-811.218320 -2269.863736 97.515019
-812.911450 -2270.502478 96.663362
-814.604579 -2271.141221 95.811705
-816.297709 -2271.779964 94.960048
-817.990839 -2272.418706 94.108391
-819.683969 -2273.057449 93.256735
-821.377099 -2273.696192 92.405078
-823.070228 -2274.334934 91.553421
-824.763358 -2274.973677 90.701764
-826.456488 -2275.612420 89.850107
-828.149618 -2276.251162 88.998450
-829.842747 -2276.889905 88.146793
-831.535877 -2277.528648 87.295136
-833.229007 -2278.167390 86.443480
-834.922137 -2278.806133 85.591823
-836.615266 -2279.444876 84.740166
-838.308396 -2280.083618 83.888509
-840.001526 -2280.722361 83.036852
-841.694656 -2281.361104 82.185195
-843.387785 -2281.999846 81.333538
-845.080915 -2282.638589 80.481882
-846.774045 -2283.277331 79.630225
-848.467175 -2283.916074 78.778568
-850.160305 -2284.554817 77.926911
-851.853434 -2285.193559 77.075254
-853.546564 -2285.832302 76.223597
-855.239694 -2286.471045 75.371940
-856.932824 -2287.109787 74.520283
-858.625953 -2287.748530 73.668627
-860.319083 -2288.387273 72.816970
-862.012213 -2289.026015 71.965313
-863.705343 -2289.664758 71.113656
-865.398472 -2290.303501 70.261999
-867.091602 -2290.942243 69.410342
-868.784732 -2291.580986 68.558685
-870.477862 -2292.219729 67.707029
-872.170992 -2292.858471 66.855372
-873.864121 -2293.497214 66.003715
-875.557251 -2294.135957 65.152058
-877.250381 -2294.774699 64.300401
-878.943511 -2295.413442 63.448744
-880.636640 -2296.052184 62.597087
-882.329770 -2296.690927 61.745430
-884.022900 -2297.329670 60.893774
-885.716030 -2297.968412 60.042117
-887.409159 -2298.607155 59.190460
-889.102289 -2299.245898 58.338803
-890.795419 -2299.884640 57.487146
-892.488549 -2300.523383 56.635489
-894.181679 -2301.162126 55.783832
-895.874808 -2301.800868 54.932176
-897.567938 -2302.439611 54.080519
-899.261068 -2303.078354 53.228862
-900.954198 -2303.717096 52.377205
-902.647327 -2304.355839 51.525548
-904.340457 -2304.994582 50.673891
-906.033587 -2305.633324 49.822234
-907.726717 -2306.272067 48.970577
-909.419846 -2306.910810 48.118921
-911.112976 -2307.549552 47.267264
-912.806106 -2308.188295 46.415607
-914.499236 -2308.827037 45.563950
-916.192365 -2309.465780 44.712293
-917.885495 -2310.104523 43.860636
-919.578625 -2310.743265 43.008979
-921.271755 -2311.382008 42.157323
-922.964885 -2312.020751 41.305666
-924.658014 -2312.659493 40.454009
-926.351144 -2313.298236 39.602352
-928.044274 -2313.936979 38.750695
-929.737404 -2314.575721 37.899038
-931.430533 -2315.214464 37.047381
-933.123663 -2315.853207 36.195724
-934.816793 -2316.491949 35.344068
-936.509923 -2317.130692 34.492411
-938.203052 -2317.769435 33.640754
-939.896182 -2318.408177 32.789097
-941.589312 -2319.046920 31.937440
-943.282442 -2319.685663 31.085783
-944.975572 -2320.324405 30.234126
-946.668701 -2320.963148 29.382470
-948.361831 -2321.601890 28.530813
-950.054961 -2322.240633 27.679156
-951.748091 -2322.879376 26.827499
-953.441220 -2323.518118 25.975842
-955.134350 -2324.156861 25.124185
-956.827480 -2324.795604 24.272528
-958.520610 -2325.434346 23.420871
-960.213739 -2326.073089 22.569215
-961.906869 -2326.711832 21.717558
-963.599999 -2327.350574 20.865901
-965.293129 -2327.989317 20.014244
-966.986258 -2328.628060 19.162587
-968.679388 -2329.266802 18.310930
-970.372518 -2329.905545 17.459273
-972.065648 -2330.544288 16.607617
-973.758778 -2331.183030 15.755960
-975.451907 -2331.821773 14.904303
-977.145037 -2332.460516 14.052646
-978.838167 -2333.099258 13.200989
-980.531297 -2333.738001 12.349332
-982.224426 -2334.376744 11.497675
-983.917556 -2335.015486 10.646018
-985.610686 -2335.654229 9.794362
-987.303816 -2336.292971 8.942705
-988.996945 -2336.931714 8.091048
-990.690075 -2337.570457 7.239391
-992.383205 -2338.209199 6.387734
-994.076335 -2338.847942 5.536077
-995.769465 -2339.486685 4.684420
-997.462594 -2340.125427 3.832764
-999.155724 -2340.764170 2.981107
-1000.848854 -2341.402913 2.129450
-1002.541984 -2342.041655 1.277793
-1004.235113 -2342.680398 0.426136
-1005.928243 -2343.319141 -0.425521
-1007.621373 -2343.957883 -1.277178
-1009.314503 -2344.596626 -2.128835
-1011.007632 -2345.235369 -2.980491
-1012.700762 -2345.874111 -3.832148
-1014.393892 -2346.512854 -4.683805
-1016.087022 -2347.151597 -5.535462
-1017.780151 -2347.790339 -6.387119
-1019.473281 -2348.429082 -7.238776
-1021.166411 -2349.067824 -8.090433
-1022.859541 -2349.706567 -8.942089
-1024.552671 -2350.345310 -9.793746
-1026.245800 -2350.984052 -10.645403
-1027.938930 -2351.622795 -11.497060
-1029.632060 -2352.261538 -12.348717
-1031.325190 -2352.900280 -13.200374
-1033.018319 -2353.539023 -14.052031
-1034.711449 -2354.177766 -14.903688
-1036.404579 -2354.816508 -15.755344
-1038.097709 -2355.455251 -16.607001
-1039.790838 -2356.093994 -17.458658
-1041.483968 -2356.732736 -18.310315
-1043.177098 -2357.371479 -19.161972
-1044.870228 -2358.010222 -20.013629
-1046.563358 -2358.648964 -20.865286
-1048.256487 -2359.287707 -21.716942
-1049.949617 -2359.926450 -22.568599
-1051.642747 -2360.565192 -23.420256
-1053.335877 -2361.203935 -24.271913
-1055.029006 -2361.842677 -25.123570
-1056.722136 -2362.481420 -25.975227
-1058.415266 -2363.120163 -26.826884
-1060.108396 -2363.758905 -27.678541
-1061.801525 -2364.397648 -28.530197
-1063.494655 -2365.036391 -29.381854
-1065.187785 -2365.675133 -30.233511
-1066.880915 -2366.313876 -31.085168
-1068.574045 -2366.952619 -31.936825
-1070.267174 -2367.591361 -32.788482
-1071.960304 -2368.230104 -33.640139
-1073.653434 -2368.868847 -34.491795
-1075.346564 -2369.507589 -35.343452
-1077.039693 -2370.146332 -36.195109
-1078.732823 -2370.785075 -37.046766
-1080.425953 -2371.423817 -37.898423
-1082.119083 -2372.062560 -38.750080
-1083.812212 -2372.701303 -39.601737
-1085.505342 -2373.340045 -40.453394
-1087.198472 -2373.978788 -41.305050
-1088.891602 -2374.617530 -42.156707
-1090.584731 -2375.256273 -43.008364
-1092.277861 -2375.895016 -43.860021
-1093.970991 -2376.533758 -44.711678
-1095.664121 -2377.172501 -45.563335
-1097.357251 -2377.811244 -46.414992
-1099.050380 -2378.449986 -47.266648
-1100.743510 -2379.088729 -48.118305
-1102.436640 -2379.727472 -48.969962
-1104.129770 -2380.366214 -49.821619
-1105.822899 -2381.004957 -50.673276
-1107.516029 -2381.643700 -51.524933
-1109.209159 -2382.282442 -52.376590
-1110.902289 -2382.921185 -53.228247
-1112.595418 -2383.559928 -54.079903
-1114.288548 -2384.198670 -54.931560
-1115.981678 -2384.837413 -55.783217
-1117.674808 -2385.476156 -56.634874
-1119.367938 -2386.114898 -57.486531
-1121.061067 -2386.753641 -58.338188
-1122.754197 -2387.392383 -59.189845
-1124.447327 -2388.031126 -60.041501
-1126.140457 -2388.669869 -60.893158
-1127.833586 -2389.308611 -61.744815
-1129.526716 -2389.947354 -62.596472
-1131.219846 -2390.586097 -63.448129
-1132.912976 -2391.224839 -64.299786
-1134.606105 -2391.863582 -65.151443
-1136.299235 -2392.502325 -66.003100
-1137.992365 -2393.141067 -66.854756
-1139.685495 -2393.779810 -67.706413
-1141.378624 -2394.418553 -68.558070
-1143.071754 -2395.057295 -69.409727
-1144.764884 -2395.696038 -70.261384
-1146.458014 -2396.334781 -71.113041
-1148.151144 -2396.973523 -71.964698
-1149.844273 -2397.612266 -72.816354
-1151.537403 -2398.251009 -73.668011
-1153.230533 -2398.889751 -74.519668
-1154.923663 -2399.528494 -75.371325
-1156.616792 -2400.167236 -76.222982
-1158.309922 -2400.805979 -77.074639
-1160.003052 -2401.444722 -77.926296
-1161.696182 -2402.083464 -78.777953
-1163.389311 -2402.722207 -79.629609
-1165.082441 -2403.360950 -80.481266
-1166.775571 -2403.999692 -81.332923
-1168.468701 -2404.638435 -82.184580
-1170.161831 -2405.277178 -83.036237
-1171.854960 -2405.915920 -83.887894
-1173.548090 -2406.554663 -84.739551
-1175.241220 -2407.193406 -85.591207
-1176.934350 -2407.832148 -86.442864
-1178.627479 -2408.470891 -87.294521
-1180.320609 -2409.109634 -88.146178
-1182.013739 -2409.748376 -88.997835
-1183.706869 -2410.387119 -89.849492
-1185.399998 -2411.025862 -90.701149
-1187.093128 -2411.664604 -91.552806
-1188.786258 -2412.303347 -92.404462
-1190.479388 -2412.942089 -93.256119
-1192.172517 -2413.580832 -94.107776
-1193.865647 -2414.219575 -94.959433
-1195.558777 -2414.858317 -95.811090
-1197.251907 -2415.497060 -96.662747
-1198.945037 -2416.135803 -97.514404
-1200.638166 -2416.774545 -98.366060
-1202.331296 -2417.413288 -99.217717
-1204.024426 -2418.052031 -100.069374
-1205.717556 -2418.690773 -100.921031
-1207.410685 -2419.329516 -101.772688
-1209.103815 -2419.968259 -102.624345
-1210.796945 -2420.607001 -103.476002
-1212.490075 -2421.245744 -104.327659
-1214.183204 -2421.884487 -105.179315
-1215.876334 -2422.523229 -106.030972
-1217.569464 -2423.161972 -106.882629
-1219.262594 -2423.800715 -107.734286
-1220.955724 -2424.439457 -108.585943
-1222.648853 -2425.078200 -109.437600
-1224.341983 -2425.716942 -110.289257
-1226.035113 -2426.355685 -111.140914
-1227.728243 -2426.994428 -111.992570
-1229.421372 -2427.633170 -112.844227
-1231.114502 -2428.271913 -113.695884
-1232.807632 -2428.910656 -114.547541
-1234.500762 -2429.549398 -115.399198
-1236.193891 -2430.188141 -116.250855
-1237.887021 -2430.826884 -117.102512
-1239.580151 -2431.465626 -117.954168
-1241.273281 -2432.104369 -118.805825
-1242.966411 -2432.743112 -119.657482
-1244.659540 -2433.381854 -120.509139
-1246.352670 -2434.020597 -121.360796
-1248.045800 -2434.659340 -122.212453
-1249.738930 -2435.298082 -123.064110
-1251.432059 -2435.936825 -123.915767
-1253.125189 -2436.575568 -124.767423
-1254.818319 -2437.214310 -125.619080
-1256.511449 -2437.853053 -126.470737
-1258.204578 -2438.491795 -127.322394
-1259.897708 -2439.130538 -128.174051
-1261.590838 -2439.769281 -129.025708
-1263.283968 -2440.408023 -129.877365
-1264.977097 -2441.046766 -130.729021
-1266.670227 -2441.685509 -131.580678
-1268.363357 -2442.324251 -132.432335
-1270.056487 -2442.962994 -133.283992
-1271.749617 -2443.601737 -134.135649
-1273.442746 -2444.240479 -134.987306
-1275.135876 -2444.879222 -135.838963
-1276.829006 -2445.517965 -136.690620
-1278.522136 -2446.156707 -137.542276
-1280.215265 -2446.795450 -138.393933
-1281.908395 -2447.434193 -139.245590
-1283.601525 -2448.072935 -140.097247
-1285.294655 -2448.711678 -140.948904
-1286.987784 -2449.350421 -141.800561
-1288.680914 -2449.989163 -142.652218
-1290.374044 -2450.627906 -143.503874
-1292.067174 -2451.266648 -144.355531
-1293.760304 -2451.905391 -145.207188
-1295.453433 -2452.544134 -146.058845
-1297.146563 -2453.182876 -146.910502
-1298.839693 -2453.821619 -147.762159
-1300.532823 -2454.460362 -148.613816
-1302.225952 -2455.099104 -149.465473
-1303.919082 -2455.737847 -150.317129
-1305.612212 -2456.376590 -151.168786
-1307.305342 -2457.015332 -152.020443
-1308.998471 -2457.654075 -152.872100
-1310.691601 -2458.292818 -153.723757
-1312.384731 -2458.931560 -154.575414
-1314.077861 -2459.570303 -155.427071
-1315.770990 -2460.209046 -156.278727
-1317.464120 -2460.847788 -157.130384
-1319.157250 -2461.486531 -157.982041
-1320.850380 -2462.125274 -158.833698
-1322.543510 -2462.764016 -159.685355
-1324.236639 -2463.402759 -160.537012
-1325.929769 -2464.041501 -161.388669
-1327.622899 -2464.680244 -162.240326
-1329.316029 -2465.318987 -163.091982
-1331.009158 -2465.957729 -163.943639
-1332.702288 -2466.596472 -164.795296
-1334.395418 -2467.235215 -165.646953
-1336.088548 -2467.873957 -166.498610
-1337.781677 -2468.512700 -167.350267
-1339.474807 -2469.151443 -168.201924
-1341.167937 -2469.790185 -169.053580
-1342.861067 -2470.428928 -169.905237
-1344.554197 -2471.067671 -170.756894
-1346.247326 -2471.706413 -171.608551
-1347.940456 -2472.345156 -172.460208
-1349.633586 -2472.983899 -173.311865
-1351.326716 -2473.622641 -174.163522
-1353.019845 -2474.261384 -175.015179
-1354.712975 -2474.900127 -175.866835
-1356.406105 -2475.538869 -176.718492
-1358.099235 -2476.177612 -177.570149
-1359.792364 -2476.816354 -178.421806
-1361.485494 -2477.455097 -179.273463
-1363.178624 -2478.093840 -180.125120
-1364.871754 -2478.732582 -180.976777
-1366.564883 -2479.371325 -181.828433
-1368.258013 -2480.010068 -182.680090
-1369.951143 -2480.648810 -183.531747
-1371.644273 -2481.287553 -184.383404
-1373.337403 -2481.926296 -185.235061
-1375.030532 -2482.565038 -186.086718
-1376.723662 -2483.203781 -186.938375
-1378.416792 -2483.842524 -187.790032
-1380.109922 -2484.481266 -188.641688
-1381.803051 -2485.120009 -189.493345
-1383.496181 -2485.758752 -190.345002
-1385.189311 -2486.397494 -191.196659
-1386.882441 -2487.036237 -192.048316
-1388.575570 -2487.674980 -192.899973
-1390.268700 -2488.313722 -193.751630
-1391.961830 -2488.952465 -194.603286
-1393.654960 -2489.591207 -195.454943
-1395.348090 -2490.229950 -196.306600
-1397.041219 -2490.868693 -197.158257
-1398.734349 -2491.507435 -198.009914
-1400.427479 -2492.146178 -198.861571
-1402.120609 -2492.784921 -199.713228
-1403.813738 -2493.423663 -200.564885
-1405.506868 -2494.062406 -201.416541
-1407.199998 -2494.701149 -202.268198
-1408.893128 -2495.339891 -203.119855
-1410.586257 -2495.978634 -203.971512
-1412.279387 -2496.617377 -204.823169
-1413.972517 -2497.256119 -205.674826
-1415.665647 -2497.894862 -206.526483
-1417.358777 -2498.533605 -207.378139
-1419.051906 -2499.172347 -208.229796
-1420.745036 -2499.811090 -209.081453
-1422.438166 -2500.449833 -209.933110
-1424.131296 -2501.088575 -210.784767
-1425.824425 -2501.727318 -211.636424
-1427.517555 -2502.366060 -212.488081
-1429.210685 -2503.004803 -213.339738
-1430.903815 -2503.643546 -214.191394
-1432.596944 -2504.282288 -215.043051
-1434.290074 -2504.921031 -215.894708
-1435.983204 -2505.559774 -216.746365
-1437.676334 -2506.198516 -217.598022
-1439.369463 -2506.837259 -218.449679
-1441.062593 -2507.476002 -219.301336
-1442.755723 -2508.114744 -220.152992
-1444.448853 -2508.753487 -221.004649
-1446.141983 -2509.392230 -221.856306
-1447.835112 -2510.030972 -222.707963
-1449.528242 -2510.669715 -223.559620
-1451.221372 -2511.308458 -224.411277
-1452.914502 -2511.947200 -225.262934
-1454.607631 -2512.585943 -226.114591
-1456.300761 -2513.224686 -226.966247
-1457.993891 -2513.863428 -227.817904
-1459.687021 -2514.502171 -228.669561
-1461.380150 -2515.140914 -229.521218
-1463.073280 -2515.779656 -230.372875
-1464.766410 -2516.418399 -231.224532
-1466.459540 -2517.057141 -232.076189
-1468.152670 -2517.695884 -232.927845
-1469.845799 -2518.334627 -233.779502
-1471.538929 -2518.973369 -234.631159
-1473.232059 -2519.612112 -235.482816
-1474.925189 -2520.250855 -236.334473
-1476.618318 -2520.889597 -237.186130
-1478.311448 -2521.528340 -238.037787
-1480.004578 -2522.167083 -238.889444
-1481.697708 -2522.805825 -239.741100
-1483.390837 -2523.444568 -240.592757
-1485.083967 -2524.083311 -241.444414
-1486.777097 -2524.722053 -242.296071
-1488.470227 -2525.360796 -243.147728
-1490.163356 -2525.999539 -243.999385
-1491.856486 -2526.638281 -244.851042
-1493.549616 -2527.277024 -245.702698
-1495.242746 -2527.915767 -246.554355
-1496.935876 -2528.554509 -247.406012
-1498.629005 -2529.193252 -248.257669
-1500.322135 -2529.831994 -249.109326
-1502.015265 -2530.470737 -249.960983
-1503.708395 -2531.109480 -250.812640
-1505.401524 -2531.748222 -251.664297
-1507.094654 -2532.386965 -252.515953
-1508.787784 -2533.025708 -253.367610
-1510.480914 -2533.664450 -254.219267
-1512.174043 -2534.303193 -255.070924
-1513.867173 -2534.941936 -255.922581
-1515.560303 -2535.580678 -256.774238
-1517.253433 -2536.219421 -257.625895
-1518.946563 -2536.858164 -258.477551
-1520.639692 -2537.496906 -259.329208
-1522.332822 -2538.135649 -260.180865
-1524.025952 -2538.774392 -261.032522
-1525.719082 -2539.413134 -261.884179
-1527.412211 -2540.051877 -262.735836
-1529.105341 -2540.690620 -263.587493
-1530.798471 -2541.329362 -264.439150
-1532.491601 -2541.968105 -265.290806
-1534.184730 -2542.606847 -266.142463
-1535.877860 -2543.245590 -266.994120
-1537.570990 -2543.884333 -267.845777
-1539.264120 -2544.523075 -268.697434
-1540.957249 -2545.161818 -269.549091
-1542.650379 -2545.800561 -270.400748
-1544.343509 -2546.439303 -271.252404
-1546.036639 -2547.078046 -272.104061
-1547.729769 -2547.716789 -272.955718
-1549.422898 -2548.355531 -273.807375
-1551.116028 -2548.994274 -274.659032
-1552.809158 -2549.633017 -275.510689
-1554.502288 -2550.271759 -276.362346
-1556.195417 -2550.910502 -277.214003
-1557.888547 -2551.549245 -278.065659
-1559.581677 -2552.187987 -278.917316
-1561.274807 -2552.826730 -279.768973
-1562.967936 -2553.465473 -280.620630
-1564.661066 -2554.104215 -281.472287
-1566.354196 -2554.742958 -282.323944
-1568.047326 -2555.381700 -283.175601
-1569.740456 -2556.020443 -284.027257
-1571.433585 -2556.659186 -284.878914
-1573.126715 -2557.297928 -285.730571
-1574.819845 -2557.936671 -286.582228
-1576.512975 -2558.575414 -287.433885
-1578.206104 -2559.214156 -288.285542
-1579.899234 -2559.852899 -289.137199
-1581.592364 -2560.491642 -289.988856
-1583.285494 -2561.130384 -290.840512
-1584.978623 -2561.769127 -291.692169
-1586.671753 -2562.407870 -292.543826
-1588.364883 -2563.046612 -293.395483
-1590.058013 -2563.685355 -294.247140
-1591.751143 -2564.324098 -295.098797
-1593.444272 -2564.962840 -295.950454
-1595.137402 -2565.601583 -296.802110
-1596.830532 -2566.240326 -297.653767
-1598.523662 -2566.879068 -298.505424
-1600.216791 -2567.517811 -299.357081
-1601.909921 -2568.156553 -300.208738
-1603.603051 -2568.795296 -301.060395
-1605.296181 -2569.434039 -301.912052
-1606.989310 -2570.072781 -302.763709
-1608.682440 -2570.711524 -303.615365
-1610.375570 -2571.350267 -304.467022
-1612.068700 -2571.989009 -305.318679
-1613.761829 -2572.627752 -306.170336
-1615.454959 -2573.266495 -307.021993
-1617.148089 -2573.905237 -307.873650
-1618.841219 -2574.543980 -308.725307
-1620.534349 -2575.182723 -309.576963
-1622.227478 -2575.821465 -310.428620
-1623.920608 -2576.460208 -311.280277
-1625.613738 -2577.098951 -312.131934
-1627.306868 -2577.737693 -312.983591
-1628.999997 -2578.376436 -313.835248
-1630.693127 -2579.015179 -314.686905
-1632.386257 -2579.653921 -315.538562
-1634.079387 -2580.292664 -316.390218
-1635.772516 -2580.931406 -317.241875
-1637.465646 -2581.570149 -318.093532
-1639.158776 -2582.208892 -318.945189
-1640.851906 -2582.847634 -319.796846
-1642.545036 -2583.486377 -320.648503
-1644.238165 -2584.125120 -321.500160
-1645.931295 -2584.763862 -322.351816
-1647.624425 -2585.402605 -323.203473
-1649.317555 -2586.041348 -324.055130
-1651.010684 -2586.680090 -324.906787
-1652.703814 -2587.318833 -325.758444
-1654.396944 -2587.957576 -326.610101
-1656.090074 -2588.596318 -327.461758
-1657.783203 -2589.235061 -328.313415
-1659.476333 -2589.873804 -329.165071
-1661.169463 -2590.512546 -330.016728
-1662.862593 -2591.151289 -330.868385
-1665.112291 -2592.000000 -332.000000
-1665.861870 -2593.854209 -331.993561
-1666.611449 -2595.708417 -331.987122
-1667.361029 -2597.562626 -331.980683
-1668.110608 -2599.416834 -331.974244
-1668.860187 -2601.271043 -331.967805
-1669.609767 -2603.125251 -331.961366
-1670.359346 -2604.979460 -331.954926
-1671.108926 -2606.833668 -331.948487
-1671.858505 -2608.687877 -331.942048
-1672.608084 -2610.542085 -331.935609
-1673.357664 -2612.396294 -331.929170
-1674.107243 -2614.250503 -331.922731
-1674.856822 -2616.104711 -331.916292
-1675.606402 -2617.958920 -331.909853
-1676.355981 -2619.813128 -331.903414
-1677.105560 -2621.667337 -331.896975
-1677.855140 -2623.521545 -331.890536
-1678.604719 -2625.375754 -331.884097
-1679.354298 -2627.229962 -331.877658
-1680.103878 -2629.084171 -331.871218
-1680.853457 -2630.938379 -331.864779
-1681.603036 -2632.792588 -331.858340
-1682.352616 -2634.646797 -331.851901
-1683.102195 -2636.501005 -331.845462
-1683.851774 -2638.355214 -331.839023
-1684.601354 -2640.209422 -331.832584
-1685.350933 -2642.063631 -331.826145
-1686.100513 -2643.917839 -331.819706
-1686.850092 -2645.772048 -331.813267
-1687.599671 -2647.626256 -331.806828
-1688.349251 -2649.480465 -331.800389
-1689.098830 -2651.334674 -331.793950
-1689.848409 -2653.188882 -331.787510
-1690.597989 -2655.043091 -331.781071
-1691.347568 -2656.897299 -331.774632
-1692.097147 -2658.751508 -331.768193
-1692.846727 -2660.605716 -331.761754
-1693.596306 -2662.459925 -331.755315
-1694.345885 -2664.314133 -331.748876
-1695.095465 -2666.168342 -331.742437
-1695.845044 -2668.022550 -331.735998
